-0.70855,-0.70855,-0.70855,-0.70855,-0.70839,-0.70839,-0.70839,-0.70839,-0.70839,-0.70839,-0.70839,-0.70839,-0.70839,-0.70839,-0.70839,-0.70824,-0.70824,-0.70824,-0.70824,-0.70824,-0.70824,-0.70824,-0.70824,-0.70824,-0.70824,-0.70809,-0.70809,-0.70809,-0.70809,-0.70809,-0.70809,-0.70809,-0.70809,-0.70809,-0.70809,-0.70809,-0.70793,-0.70793,-0.70793,-0.70815,-0.70815,-0.70815,-0.70815,-0.70815,-0.70815,-0.70815,-0.70799,-0.70799,-0.70799,-0.70799,-0.70799,-0.70799,-0.70799,-0.708,-0.708,-0.708,-0.70784,-0.70784,-0.70784,-0.70784,-0.70784,-0.70784,-0.70784,-0.70784,-0.70784,-0.70784,-0.70784,-0.70769,-0.70769,-0.70769,-0.70769,-0.70769,-0.70769,-0.70769,-0.70769,-0.70769,-0.70769,-0.70753,-0.70753,-0.70769,-0.70784,-0.708,-0.70815,-0.70809,-0.70825,-0.70825,-0.7084,-0.70855,-0.70871,-0.70865,-0.7088,-0.70896,-0.70911,-0.70927,-0.70942,-0.70921,-0.70936,-0.70952,-0.70967,-0.70982,-0.70998,-0.70992,-0.71007,-0.71023,-0.71023,-0.71038,-0.71054,-0.71069,-0.71063,-0.71078,-0.71094,-0.71109,-0.71125,-0.7114,-0.71119,-0.71134,-0.71149,-0.71165,-0.7118,-0.71196,-0.71189,-0.71205,-0.7122,-0.71236,-0.71236,-0.71251,-0.71353,-0.83617,-0.82302,-0.6978,-0.69569,-0.69569,-0.69569,-0.69569,-0.69569,-0.69569,-0.69569,-0.69569,-0.69569,-0.69569,-0.69569,-0.69569,-0.69569,-0.69482,-0.69482,-0.69545,-0.69545,-0.69545,-0.69545,-0.69545,-0.69545,-0.69545,-0.69545,-0.69545,-0.69545,-0.69545,-0.69457,-0.69457,-0.69457,-0.69457,-0.69457,-0.69457,-0.69457,-0.69457,-0.69457,-0.69457,-0.69457,-0.69457,-0.69457,-0.6937,-0.6937,-0.6937,-0.6937,-0.69369,-0.69369,-0.69369,-0.69369,-0.6937,-0.6937,-0.6937,-0.6937,-0.6937,-0.6937,-0.6937,-0.6937,-0.6937,-0.6937,-0.6937,-0.6937,-0.6937,-0.6937,-0.69371,-0.69371,-0.69371,-0.69371,-0.69371,-0.69371,-0.69371,-0.69371,-0.69371,-0.69372,-0.69372,-0.69372,-0.69372,-0.69372,-0.69372,-0.69372,-0.69372,-0.69372,-0.69372,-0.69372,-0.69372,-0.69372,-0.69372,-0.69372,-0.69372,-0.69372,-0.69373,-0.69373,-0.69373,-0.69373,-0.69373,-0.69373,-0.69373,-0.69373,-0.69373,-0.69373,-0.69373,-0.69461,-0.69461,-0.69461,-0.69461,-0.69461,-0.69461,-0.69461,-0.69461,-0.69461,-0.69461,-0.69461,-0.69462,-0.69462,-0.69462,-0.69462,-0.69462,-0.69462,-0.69462,-0.69462,-0.69462,-0.69462,-0.69462,-0.69462,-0.69462,-0.69462,-0.69462,-0.69462,-0.69462
-0.70855,-0.70839,-0.70839,-0.70839,-0.70839,-0.70839,-0.70839,-0.70839,-0.70839,-0.70839,-0.70839,-0.70839,-0.70824,-0.70824,-0.70824,-0.70824,-0.70824,-0.70824,-0.70824,-0.70824,-0.70824,-0.70824,-0.70809,-0.70809,-0.70809,-0.70809,-0.70809,-0.70809,-0.70809,-0.70809,-0.70809,-0.70809,-0.70809,-0.70793,-0.70793,-0.70793,-0.70815,-0.70815,-0.70815,-0.70815,-0.70815,-0.70815,-0.70815,-0.70799,-0.70799,-0.70799,-0.70799,-0.70799,-0.70799,-0.70799,-0.70799,-0.70799,-0.70799,-0.70784,-0.70784,-0.70784,-0.70784,-0.70784,-0.70784,-0.70784,-0.70784,-0.70784,-0.70784,-0.70784,-0.70769,-0.70769,-0.70769,-0.70769,-0.70769,-0.70769,-0.70769,-0.70769,-0.70769,-0.70769,-0.70753,-0.70753,-0.70753,-0.70753,-0.70753,-0.70769,-0.70784,-0.708,-0.70815,-0.70809,-0.70825,-0.7084,-0.70855,-0.70855,-0.70871,-0.70865,-0.7088,-0.70896,-0.70911,-0.70927,-0.70942,-0.70936,-0.70952,-0.70952,-0.70967,-0.70982,-0.70998,-0.70992,-0.71007,-0.71023,-0.71038,-0.71054,-0.71054,-0.71048,-0.71063,-0.71078,-0.71094,-0.71109,-0.71125,-0.71119,-0.71134,-0.71149,-0.71149,-0.71165,-0.7118,-0.71196,-0.71189,-0.71205,-0.7122,-0.71236,-0.71251,-0.71267,-0.71353,-0.83649,-0.8237,-0.6978,-0.69569,-0.69569,-0.69569,-0.69569,-0.69569,-0.69569,-0.69569,-0.69569,-0.69569,-0.69569,-0.69569,-0.69569,-0.69569,-0.69482,-0.69482,-0.69545,-0.69545,-0.69545,-0.69545,-0.69545,-0.69545,-0.69545,-0.69545,-0.69545,-0.69545,-0.69545,-0.69457,-0.69457,-0.69457,-0.69457,-0.69457,-0.69457,-0.69457,-0.69457,-0.69457,-0.69457,-0.69457,-0.69457,-0.69457,-0.69457,-0.6937,-0.6937,-0.6937,-0.6937,-0.6937,-0.6937,-0.69369,-0.6937,-0.6937,-0.6937,-0.6937,-0.6937,-0.6937,-0.6937,-0.6937,-0.6937,-0.6937,-0.6937,-0.6937,-0.6937,-0.6937,-0.69371,-0.69371,-0.69371,-0.69371,-0.69371,-0.69371,-0.69371,-0.69371,-0.69371,-0.69372,-0.69372,-0.69372,-0.69372,-0.69372,-0.69372,-0.69372,-0.69372,-0.69372,-0.69372,-0.69372,-0.69372,-0.69372,-0.69372,-0.69372,-0.69372,-0.69372,-0.69372,-0.69373,-0.69373,-0.69373,-0.69373,-0.69373,-0.69373,-0.69373,-0.69373,-0.69373,-0.69373,-0.69373,-0.69373,-0.69373,-0.69461,-0.69461,-0.69461,-0.69461,-0.69461,-0.69461,-0.69461,-0.69461,-0.69461,-0.69462,-0.69462,-0.69462,-0.69462,-0.69462,-0.69462,-0.69462,-0.69462,-0.69462,-0.69462,-0.69462,-0.69462,-0.69462,-0.69462,-0.69462,-0.69462
-0.70839,-0.70839,-0.70839,-0.70839,-0.70839,-0.70839,-0.70839,-0.70839,-0.70839,-0.70824,-0.70824,-0.70824,-0.70824,-0.70824,-0.70824,-0.70824,-0.70824,-0.70824,-0.70824,-0.70808,-0.70808,-0.70809,-0.70809,-0.70809,-0.70809,-0.70809,-0.70809,-0.70809,-0.70809,-0.70793,-0.70793,-0.70793,-0.70815,-0.70815,-0.70815,-0.70815,-0.70815,-0.70815,-0.70815,-0.70815,-0.70799,-0.70799,-0.70799,-0.70799,-0.70799,-0.70799,-0.70799,-0.70799,-0.70799,-0.70799,-0.70784,-0.70784,-0.70784,-0.70784,-0.70784,-0.70784,-0.70784,-0.70784,-0.70784,-0.70784,-0.70784,-0.70769,-0.70769,-0.70769,-0.70769,-0.70769,-0.70769,-0.70769,-0.70769,-0.70769,-0.70769,-0.70753,-0.70753,-0.70753,-0.70753,-0.70753,-0.70753,-0.70753,-0.70769,-0.70769,-0.70784,-0.708,-0.70815,-0.70809,-0.70825,-0.7084,-0.70855,-0.70871,-0.70886,-0.70865,-0.7088,-0.70896,-0.70911,-0.70927,-0.70942,-0.70936,-0.70952,-0.70967,-0.70967,-0.70982,-0.70998,-0.70992,-0.71007,-0.71023,-0.71038,-0.71054,-0.71069,-0.71063,-0.71063,-0.71078,-0.71094,-0.71109,-0.71125,-0.71118,-0.71134,-0.71149,-0.71165,-0.7118,-0.7118,-0.71174,-0.71189,-0.71205,-0.7122,-0.71236,-0.71251,-0.71267,-0.71353,-0.83649,-0.82301,-0.6978,-0.69569,-0.69569,-0.69569,-0.69569,-0.69569,-0.69569,-0.69569,-0.69569,-0.69569,-0.69569,-0.69569,-0.69569,-0.69569,-0.69482,-0.69482,-0.69545,-0.69545,-0.69545,-0.69545,-0.69545,-0.69545,-0.69545,-0.69545,-0.69545,-0.69545,-0.69545,-0.69457,-0.69457,-0.69457,-0.69457,-0.69457,-0.69457,-0.69457,-0.69457,-0.69457,-0.69457,-0.69457,-0.69457,-0.69457,-0.69457,-0.6937,-0.6937,-0.6937,-0.6937,-0.6937,-0.6937,-0.6937,-0.6937,-0.6937,-0.6937,-0.6937,-0.6937,-0.6937,-0.6937,-0.6937,-0.6937,-0.6937,-0.6937,-0.6937,-0.6937,-0.6937,-0.6937,-0.69371,-0.69371,-0.69371,-0.69371,-0.69371,-0.69371,-0.69371,-0.69371,-0.69372,-0.69372,-0.69372,-0.69372,-0.69372,-0.69372,-0.69372,-0.69372,-0.69372,-0.69372,-0.69372,-0.69372,-0.69372,-0.69372,-0.69372,-0.69372,-0.69372,-0.69372,-0.69373,-0.69373,-0.69373,-0.69373,-0.69373,-0.69373,-0.69373,-0.69373,-0.69373,-0.69373,-0.69373,-0.69373,-0.69373,-0.69374,-0.69374,-0.69461,-0.69461,-0.69461,-0.69461,-0.69461,-0.69461,-0.69461,-0.69462,-0.69462,-0.69462,-0.69462,-0.69462,-0.69462,-0.69462,-0.69462,-0.69462,-0.69462,-0.69462,-0.69462,-0.69462,-0.69462,-0.69462,-0.69462
-0.70839,-0.70839,-0.70839,-0.70839,-0.70839,-0.70839,-0.70824,-0.70824,-0.70824,-0.70824,-0.70824,-0.70824,-0.70824,-0.70824,-0.70824,-0.70824,-0.70808,-0.70808,-0.70808,-0.70808,-0.70808,-0.70808,-0.70808,-0.70809,-0.70809,-0.70809,-0.70793,-0.70793,-0.70793,-0.70815,-0.70815,-0.70815,-0.70815,-0.70815,-0.70815,-0.70815,-0.70815,-0.70799,-0.70799,-0.70799,-0.70799,-0.70799,-0.70799,-0.70799,-0.70799,-0.70799,-0.70799,-0.70784,-0.70784,-0.70784,-0.70784,-0.70784,-0.70784,-0.70784,-0.70784,-0.70784,-0.70784,-0.70768,-0.70768,-0.70768,-0.70769,-0.70769,-0.70769,-0.70769,-0.70769,-0.70769,-0.70769,-0.70769,-0.70753,-0.70753,-0.70753,-0.70753,-0.70753,-0.70753,-0.70753,-0.70753,-0.70753,-0.70753,-0.70769,-0.70784,-0.708,-0.708,-0.70794,-0.70809,-0.70825,-0.7084,-0.70855,-0.70871,-0.70886,-0.7088,-0.70896,-0.70896,-0.70911,-0.70927,-0.70942,-0.70936,-0.70952,-0.70967,-0.70982,-0.70998,-0.70998,-0.70992,-0.71007,-0.71023,-0.71038,-0.71054,-0.71069,-0.71063,-0.71078,-0.71094,-0.71094,-0.71109,-0.71125,-0.71118,-0.71134,-0.71149,-0.71165,-0.7118,-0.71196,-0.71189,-0.71189,-0.71205,-0.7122,-0.71236,-0.71251,-0.71245,-0.71353,-0.83583,-0.82301,-0.6978,-0.69569,-0.69569,-0.69569,-0.69569,-0.69569,-0.69569,-0.69569,-0.69569,-0.69569,-0.69569,-0.69569,-0.69569,-0.69569,-0.69482,-0.69482,-0.69482,-0.69545,-0.69545,-0.69545,-0.69545,-0.69545,-0.69545,-0.69545,-0.69545,-0.69545,-0.69545,-0.69545,-0.69457,-0.69457,-0.69457,-0.69457,-0.69457,-0.69457,-0.69457,-0.69457,-0.69457,-0.69457,-0.69457,-0.69457,-0.69457,-0.6937,-0.6937,-0.6937,-0.6937,-0.6937,-0.6937,-0.6937,-0.6937,-0.6937,-0.6937,-0.6937,-0.6937,-0.6937,-0.6937,-0.6937,-0.6937,-0.6937,-0.6937,-0.6937,-0.6937,-0.6937,-0.6937,-0.69371,-0.69371,-0.69371,-0.69371,-0.69371,-0.69371,-0.69371,-0.69371,-0.69371,-0.69372,-0.69372,-0.69372,-0.69372,-0.69372,-0.69372,-0.69372,-0.69372,-0.69372,-0.69372,-0.69372,-0.69372,-0.69372,-0.69372,-0.69372,-0.69372,-0.69372,-0.69373,-0.69373,-0.69373,-0.69373,-0.69373,-0.69373,-0.69373,-0.69373,-0.69373,-0.69373,-0.69373,-0.69373,-0.69373,-0.69373,-0.69374,-0.69374,-0.69374,-0.69461,-0.69461,-0.69461,-0.69461,-0.69461,-0.69461,-0.69462,-0.69462,-0.69462,-0.69462,-0.69462,-0.69462,-0.69462,-0.69462,-0.69462,-0.69462,-0.69462,-0.69462,-0.69462,-0.69462,-0.69462
-0.70839,-0.70839,-0.70824,-0.70824,-0.70824,-0.70824,-0.70824,-0.70824,-0.70824,-0.70824,-0.70824,-0.70824,-0.70824,-0.70808,-0.70808,-0.70808,-0.70808,-0.70808,-0.70808,-0.70808,-0.70808,-0.70808,-0.70808,-0.70793,-0.70793,-0.70793,-0.70815,-0.70815,-0.70815,-0.70815,-0.70815,-0.70815,-0.70815,-0.70815,-0.70799,-0.70799,-0.70799,-0.70799,-0.70799,-0.70799,-0.70799,-0.70799,-0.70799,-0.70799,-0.70784,-0.70784,-0.70784,-0.70784,-0.70784,-0.70784,-0.70784,-0.70784,-0.70784,-0.70784,-0.70768,-0.70768,-0.70768,-0.70768,-0.70768,-0.70768,-0.70768,-0.70768,-0.70769,-0.70769,-0.70769,-0.70753,-0.70753,-0.70753,-0.70753,-0.70753,-0.70753,-0.70753,-0.70753,-0.70753,-0.70753,-0.70738,-0.70738,-0.70753,-0.70769,-0.70784,-0.708,-0.70815,-0.70809,-0.70809,-0.70825,-0.7084,-0.70855,-0.70871,-0.70865,-0.7088,-0.70896,-0.70911,-0.70927,-0.70927,-0.70921,-0.70936,-0.70952,-0.70967,-0.70982,-0.70998,-0.71013,-0.71007,-0.71007,-0.71023,-0.71038,-0.71054,-0.71069,-0.71063,-0.71078,-0.71094,-0.71109,-0.71125,-0.71125,-0.71118,-0.71134,-0.71149,-0.71165,-0.7118,-0.71196,-0.71189,-0.71205,-0.7122,-0.7122,-0.71236,-0.71251,-0.71245,-0.71353,-0.83582,-0.82301,-0.6978,-0.69569,-0.69569,-0.69569,-0.69569,-0.69569,-0.69569,-0.69569,-0.69569,-0.69569,-0.69569,-0.69569,-0.69569,-0.69569,-0.69482,-0.69482,-0.69482,-0.69545,-0.69545,-0.69545,-0.69545,-0.69545,-0.69545,-0.69545,-0.69545,-0.69545,-0.69545,-0.69545,-0.69457,-0.69457,-0.69457,-0.69457,-0.69457,-0.69457,-0.69457,-0.69457,-0.69457,-0.69457,-0.69457,-0.69457,-0.69457,-0.6937,-0.6937,-0.6937,-0.6937,-0.6937,-0.6937,-0.6937,-0.6937,-0.6937,-0.6937,-0.6937,-0.6937,-0.6937,-0.6937,-0.6937,-0.6937,-0.6937,-0.6937,-0.6937,-0.6937,-0.6937,-0.6937,-0.69371,-0.69371,-0.69371,-0.69371,-0.69371,-0.69371,-0.69371,-0.69371,-0.69371,-0.69372,-0.69372,-0.69372,-0.69372,-0.69372,-0.69372,-0.69372,-0.69372,-0.69372,-0.69372,-0.69372,-0.69372,-0.69372,-0.69372,-0.69372,-0.69372,-0.69372,-0.69372,-0.69373,-0.69373,-0.69373,-0.69373,-0.69373,-0.69373,-0.69373,-0.69373,-0.69373,-0.69373,-0.69373,-0.69373,-0.69373,-0.69374,-0.69374,-0.69374,-0.69374,-0.69374,-0.69461,-0.69461,-0.69461,-0.69461,-0.69462,-0.69462,-0.69462,-0.69462,-0.69462,-0.69462,-0.69462,-0.69462,-0.69462,-0.69462,-0.69462,-0.69462,-0.69462,-0.69462,-0.69462
-0.70824,-0.70824,-0.70824,-0.70824,-0.70824,-0.70824,-0.70824,-0.70824,-0.70824,-0.70824,-0.70808,-0.70808,-0.70808,-0.70808,-0.70808,-0.70808,-0.70808,-0.70808,-0.70808,-0.70808,-0.70793,-0.70793,-0.70793,-0.70815,-0.70815,-0.70815,-0.70815,-0.70815,-0.70815,-0.70815,-0.70815,-0.70799,-0.70799,-0.70799,-0.70799,-0.70799,-0.70799,-0.70799,-0.70799,-0.70799,-0.70799,-0.70784,-0.70784,-0.70784,-0.70784,-0.70784,-0.70784,-0.70784,-0.70784,-0.70784,-0.70784,-0.70768,-0.70768,-0.70768,-0.70768,-0.70768,-0.70768,-0.70768,-0.70768,-0.70768,-0.70768,-0.70768,-0.70753,-0.70753,-0.70753,-0.70753,-0.70753,-0.70753,-0.70753,-0.70753,-0.70753,-0.70753,-0.70738,-0.70738,-0.70738,-0.70738,-0.70738,-0.70753,-0.70769,-0.70784,-0.708,-0.70815,-0.70809,-0.70825,-0.7084,-0.7084,-0.70855,-0.70871,-0.70865,-0.7088,-0.70896,-0.70911,-0.70927,-0.70942,-0.70936,-0.70936,-0.70952,-0.70967,-0.70982,-0.70998,-0.70992,-0.71007,-0.71023,-0.71038,-0.71038,-0.71054,-0.71048,-0.71063,-0.71078,-0.71094,-0.71109,-0.71125,-0.7114,-0.71134,-0.71134,-0.71149,-0.71165,-0.7118,-0.71196,-0.71189,-0.71205,-0.7122,-0.71236,-0.71251,-0.71251,-0.71245,-0.71368,-0.83549,-0.82302,-0.6978,-0.69569,-0.69569,-0.69569,-0.69569,-0.69569,-0.69569,-0.69569,-0.69569,-0.69569,-0.69569,-0.69569,-0.69569,-0.69569,-0.69569,-0.69482,-0.69482,-0.69545,-0.69545,-0.69545,-0.69545,-0.69545,-0.69545,-0.69545,-0.69545,-0.69545,-0.69545,-0.69545,-0.69457,-0.69457,-0.69457,-0.69457,-0.69457,-0.69457,-0.69457,-0.69457,-0.69457,-0.69457,-0.69457,-0.69457,-0.69457,-0.69457,-0.6937,-0.6937,-0.6937,-0.6937,-0.6937,-0.6937,-0.6937,-0.6937,-0.6937,-0.6937,-0.6937,-0.6937,-0.6937,-0.6937,-0.6937,-0.6937,-0.6937,-0.6937,-0.6937,-0.6937,-0.6937,-0.6937,-0.69371,-0.69371,-0.69371,-0.69371,-0.69371,-0.69371,-0.69371,-0.69371,-0.69371,-0.69372,-0.69372,-0.69372,-0.69372,-0.69372,-0.69372,-0.69372,-0.69372,-0.69372,-0.69372,-0.69372,-0.69372,-0.69372,-0.69372,-0.69372,-0.69372,-0.69372,-0.69373,-0.69373,-0.69373,-0.69373,-0.69373,-0.69373,-0.69373,-0.69373,-0.69373,-0.69373,-0.69373,-0.69373,-0.69373,-0.69373,-0.69374,-0.69374,-0.69374,-0.69374,-0.69374,-0.69374,-0.69374,-0.69461,-0.69462,-0.69462,-0.69462,-0.69462,-0.69462,-0.69462,-0.69462,-0.69462,-0.69462,-0.69462,-0.69462,-0.69462,-0.69462,-0.69462,-0.69462
-0.70824,-0.70824,-0.70824,-0.70824,-0.70824,-0.70824,-0.70824,-0.70808,-0.70808,-0.70808,-0.70808,-0.70808,-0.70808,-0.70808,-0.70808,-0.70808,-0.70808,-0.70793,-0.70793,-0.70793,-0.70815,-0.70815,-0.70815,-0.70815,-0.70815,-0.70815,-0.70815,-0.70799,-0.70799,-0.70799,-0.70799,-0.70799,-0.70799,-0.70799,-0.70799,-0.70799,-0.70799,-0.70799,-0.70784,-0.70784,-0.70784,-0.70784,-0.70784,-0.70784,-0.70784,-0.70784,-0.70784,-0.70784,-0.70768,-0.70768,-0.70768,-0.70768,-0.70768,-0.70768,-0.70768,-0.70768,-0.70768,-0.70768,-0.70768,-0.70753,-0.70753,-0.70753,-0.70753,-0.70753,-0.70753,-0.70753,-0.70753,-0.70753,-0.70753,-0.70738,-0.70738,-0.70738,-0.70738,-0.70738,-0.70738,-0.70738,-0.70753,-0.70753,-0.70769,-0.70784,-0.708,-0.70815,-0.70809,-0.70825,-0.7084,-0.70855,-0.70871,-0.70871,-0.70865,-0.7088,-0.70896,-0.70911,-0.70927,-0.70942,-0.70936,-0.70952,-0.70967,-0.70967,-0.70982,-0.70998,-0.70992,-0.71007,-0.71023,-0.71038,-0.71054,-0.71069,-0.71048,-0.71063,-0.71078,-0.71094,-0.71109,-0.71125,-0.71118,-0.71134,-0.71149,-0.71165,-0.71165,-0.7118,-0.71174,-0.71189,-0.71205,-0.7122,-0.71236,-0.71251,-0.71267,-0.7126,-0.71368,-0.83649,-0.82301,-0.6978,-0.69656,-0.69569,-0.69569,-0.69569,-0.69569,-0.69569,-0.69569,-0.69569,-0.69569,-0.69569,-0.69569,-0.69569,-0.69569,-0.69569,-0.69482,-0.69482,-0.69545,-0.69545,-0.69545,-0.69545,-0.69545,-0.69545,-0.69545,-0.69545,-0.69545,-0.69545,-0.69545,-0.69457,-0.69457,-0.69457,-0.69457,-0.69457,-0.69457,-0.69457,-0.69457,-0.69457,-0.69457,-0.69457,-0.69457,-0.69457,-0.69457,-0.6937,-0.6937,-0.6937,-0.6937,-0.6937,-0.6937,-0.6937,-0.6937,-0.6937,-0.6937,-0.6937,-0.6937,-0.6937,-0.6937,-0.6937,-0.6937,-0.6937,-0.6937,-0.6937,-0.6937,-0.6937,-0.6937,-0.69371,-0.69371,-0.69371,-0.69371,-0.69371,-0.69371,-0.69371,-0.69371,-0.69371,-0.69372,-0.69372,-0.69372,-0.69372,-0.69372,-0.69372,-0.69372,-0.69372,-0.69372,-0.69372,-0.69372,-0.69372,-0.69372,-0.69372,-0.69372,-0.69372,-0.69372,-0.69372,-0.69373,-0.69373,-0.69373,-0.69373,-0.69373,-0.69373,-0.69373,-0.69373,-0.69373,-0.69373,-0.69373,-0.69373,-0.69373,-0.69374,-0.69374,-0.69374,-0.69374,-0.69374,-0.69374,-0.69374,-0.69374,-0.69374,-0.69462,-0.69462,-0.69462,-0.69462,-0.69462,-0.69462,-0.69462,-0.69462,-0.69462,-0.69462,-0.69462,-0.69462,-0.69462,-0.69462
-0.70824,-0.70824,-0.70824,-0.70824,-0.70808,-0.70808,-0.70808,-0.70808,-0.70808,-0.70808,-0.70808,-0.70808,-0.70808,-0.70808,-0.70793,-0.70793,-0.70793,-0.70815,-0.70815,-0.70815,-0.70815,-0.70815,-0.70815,-0.70815,-0.70799,-0.70799,-0.70799,-0.70799,-0.70799,-0.70799,-0.70799,-0.70799,-0.70799,-0.70799,-0.70799,-0.70784,-0.70784,-0.70784,-0.70784,-0.70784,-0.70784,-0.70784,-0.70784,-0.70784,-0.70784,-0.70768,-0.70768,-0.70768,-0.70768,-0.70768,-0.70768,-0.70768,-0.70768,-0.70768,-0.70768,-0.70768,-0.70753,-0.70753,-0.70753,-0.70753,-0.70753,-0.70753,-0.70753,-0.70753,-0.70753,-0.70753,-0.70738,-0.70738,-0.70738,-0.70738,-0.70738,-0.70738,-0.70738,-0.70738,-0.70759,-0.70738,-0.70753,-0.70769,-0.70784,-0.70784,-0.708,-0.70794,-0.70809,-0.70824,-0.7084,-0.70855,-0.70871,-0.70886,-0.7088,-0.7088,-0.70896,-0.70911,-0.70927,-0.70942,-0.70936,-0.70952,-0.70967,-0.70982,-0.70982,-0.70998,-0.70992,-0.71007,-0.71023,-0.71038,-0.71054,-0.71069,-0.71063,-0.71078,-0.71078,-0.71094,-0.71109,-0.71125,-0.71118,-0.71134,-0.71149,-0.71165,-0.7118,-0.71196,-0.71174,-0.71189,-0.71205,-0.7122,-0.71236,-0.71251,-0.71245,-0.7126,-0.71368,-0.83682,-0.82302,-0.6978,-0.69656,-0.69569,-0.69569,-0.69569,-0.69569,-0.69569,-0.69569,-0.69569,-0.69569,-0.69569,-0.69569,-0.69569,-0.69569,-0.69569,-0.69482,-0.69482,-0.69482,-0.69545,-0.69545,-0.69545,-0.69545,-0.69545,-0.69545,-0.69545,-0.69545,-0.69545,-0.69545,-0.69545,-0.69457,-0.69457,-0.69457,-0.69457,-0.69457,-0.69457,-0.69457,-0.69457,-0.69457,-0.69457,-0.69457,-0.69457,-0.69457,-0.6937,-0.6937,-0.6937,-0.6937,-0.6937,-0.6937,-0.6937,-0.6937,-0.6937,-0.6937,-0.6937,-0.6937,-0.6937,-0.6937,-0.6937,-0.6937,-0.6937,-0.6937,-0.6937,-0.6937,-0.6937,-0.6937,-0.69371,-0.69371,-0.69371,-0.69371,-0.69371,-0.69371,-0.69371,-0.69371,-0.69371,-0.69372,-0.69372,-0.69372,-0.69372,-0.69372,-0.69372,-0.69372,-0.69372,-0.69372,-0.69372,-0.69372,-0.69372,-0.69372,-0.69372,-0.69372,-0.69372,-0.69372,-0.69372,-0.69373,-0.69373,-0.69373,-0.69373,-0.69373,-0.69373,-0.69373,-0.69373,-0.69373,-0.69373,-0.69373,-0.69373,-0.69373,-0.69374,-0.69374,-0.69374,-0.69374,-0.69374,-0.69374,-0.69374,-0.69374,-0.69374,-0.69374,-0.69374,-0.69462,-0.69462,-0.69462,-0.69462,-0.69462,-0.69462,-0.69462,-0.69462,-0.69462,-0.69462,-0.69462,-0.69462
-0.70808,-0.70808,-0.70808,-0.70808,-0.70808,-0.70808,-0.70808,-0.70808,-0.70808,-0.70808,-0.70808,-0.70793,-0.70793,-0.70793,-0.70815,-0.70815,-0.70815,-0.70815,-0.70815,-0.70815,-0.70815,-0.70799,-0.70799,-0.70799,-0.70799,-0.70799,-0.70799,-0.70799,-0.70799,-0.70799,-0.70799,-0.70799,-0.70784,-0.70784,-0.70784,-0.70784,-0.70784,-0.70784,-0.70784,-0.70784,-0.70784,-0.70784,-0.70768,-0.70768,-0.70768,-0.70768,-0.70768,-0.70768,-0.70768,-0.70768,-0.70768,-0.70768,-0.70753,-0.70753,-0.70753,-0.70753,-0.70753,-0.70753,-0.70753,-0.70753,-0.70753,-0.70753,-0.70753,-0.70738,-0.70738,-0.70738,-0.70738,-0.70738,-0.70738,-0.70738,-0.70738,-0.70759,-0.70759,-0.70744,-0.70759,-0.70738,-0.70753,-0.70769,-0.70784,-0.708,-0.70815,-0.70794,-0.70809,-0.70824,-0.7084,-0.70855,-0.70871,-0.70865,-0.7088,-0.70896,-0.70911,-0.70911,-0.70927,-0.70942,-0.70936,-0.70952,-0.70967,-0.70982,-0.70998,-0.71013,-0.70992,-0.71007,-0.71023,-0.71038,-0.71054,-0.71069,-0.71063,-0.71078,-0.71094,-0.71109,-0.71109,-0.71125,-0.71118,-0.71134,-0.71149,-0.71165,-0.7118,-0.71196,-0.71189,-0.71205,-0.71205,-0.7122,-0.71236,-0.71251,-0.71245,-0.7126,-0.71368,-0.83648,-0.8237,-0.6978,-0.69656,-0.69569,-0.69569,-0.69569,-0.69569,-0.69569,-0.69569,-0.69569,-0.69569,-0.69569,-0.69569,-0.69569,-0.69569,-0.69569,-0.69482,-0.69482,-0.69482,-0.69545,-0.69545,-0.69545,-0.69545,-0.69545,-0.69545,-0.69545,-0.69545,-0.69545,-0.69545,-0.69545,-0.69457,-0.69457,-0.69457,-0.69457,-0.69457,-0.69457,-0.69457,-0.69457,-0.69457,-0.69457,-0.69457,-0.69457,-0.69457,-0.6937,-0.6937,-0.6937,-0.6937,-0.6937,-0.6937,-0.6937,-0.6937,-0.6937,-0.6937,-0.6937,-0.6937,-0.6937,-0.6937,-0.6937,-0.6937,-0.6937,-0.6937,-0.6937,-0.6937,-0.6937,-0.6937,-0.6937,-0.69371,-0.69371,-0.69371,-0.69371,-0.69371,-0.69371,-0.69371,-0.69371,-0.69371,-0.69372,-0.69372,-0.69372,-0.69372,-0.69372,-0.69372,-0.69372,-0.69372,-0.69372,-0.69372,-0.69372,-0.69372,-0.69372,-0.69372,-0.69372,-0.69372,-0.69372,-0.69373,-0.69373,-0.69373,-0.69373,-0.69373,-0.69373,-0.69373,-0.69373,-0.69373,-0.69373,-0.69373,-0.69373,-0.69373,-0.69373,-0.69374,-0.69374,-0.69374,-0.69374,-0.69374,-0.69374,-0.69374,-0.69374,-0.69374,-0.69374,-0.69374,-0.69374,-0.69462,-0.69462,-0.69462,-0.69462,-0.69462,-0.69462,-0.69462,-0.69462,-0.69462,-0.69462
-0.70808,-0.70808,-0.70808,-0.70808,-0.70808,-0.70808,-0.70808,-0.70808,-0.70793,-0.70793,-0.70815,-0.70815,-0.70815,-0.70815,-0.70815,-0.70815,-0.70815,-0.70815,-0.70799,-0.70799,-0.70799,-0.70799,-0.70799,-0.70799,-0.70799,-0.70799,-0.70799,-0.70799,-0.70799,-0.70784,-0.70784,-0.70784,-0.70784,-0.70784,-0.70784,-0.70784,-0.70784,-0.70784,-0.70784,-0.70768,-0.70768,-0.70768,-0.70768,-0.70768,-0.70768,-0.70768,-0.70768,-0.70768,-0.70768,-0.70753,-0.70753,-0.70753,-0.70753,-0.70753,-0.70753,-0.70753,-0.70753,-0.70753,-0.70753,-0.70753,-0.70738,-0.70738,-0.70738,-0.70738,-0.70738,-0.70738,-0.70738,-0.70738,-0.70759,-0.70759,-0.70744,-0.70744,-0.70744,-0.70744,-0.70744,-0.70738,-0.70753,-0.70769,-0.70784,-0.708,-0.70815,-0.70809,-0.70824,-0.70824,-0.7084,-0.70855,-0.70871,-0.70865,-0.7088,-0.70896,-0.70911,-0.70927,-0.70942,-0.70921,-0.70936,-0.70952,-0.70967,-0.70982,-0.70998,-0.70992,-0.71007,-0.71023,-0.71023,-0.71038,-0.71054,-0.71069,-0.71063,-0.71078,-0.71094,-0.71109,-0.71125,-0.7114,-0.71118,-0.71134,-0.71149,-0.71165,-0.7118,-0.71196,-0.71189,-0.71205,-0.7122,-0.71236,-0.71236,-0.71251,-0.71245,-0.7126,-0.71368,-0.83648,-0.82301,-0.6978,-0.69656,-0.69569,-0.69569,-0.69569,-0.69569,-0.69569,-0.69569,-0.69569,-0.69569,-0.69569,-0.69569,-0.69569,-0.69569,-0.69569,-0.69569,-0.69482,-0.69482,-0.69545,-0.69545,-0.69545,-0.69545,-0.69545,-0.69545,-0.69545,-0.69545,-0.69545,-0.69545,-0.69545,-0.69457,-0.69457,-0.69457,-0.69457,-0.69457,-0.69457,-0.69457,-0.69457,-0.69457,-0.69457,-0.69457,-0.69457,-0.69457,-0.6937,-0.6937,-0.6937,-0.6937,-0.6937,-0.6937,-0.6937,-0.6937,-0.6937,-0.6937,-0.6937,-0.6937,-0.6937,-0.6937,-0.6937,-0.6937,-0.6937,-0.6937,-0.6937,-0.6937,-0.6937,-0.6937,-0.6937,-0.69371,-0.69371,-0.69371,-0.69371,-0.69371,-0.69371,-0.69371,-0.69371,-0.69371,-0.69372,-0.69372,-0.69372,-0.69372,-0.69372,-0.69372,-0.69372,-0.69372,-0.69372,-0.69372,-0.69372,-0.69372,-0.69372,-0.69372,-0.69372,-0.69372,-0.69372,-0.69372,-0.69373,-0.69373,-0.69373,-0.69373,-0.69373,-0.69373,-0.69373,-0.69373,-0.69373,-0.69373,-0.69373,-0.69373,-0.69373,-0.69374,-0.69374,-0.69374,-0.69374,-0.69374,-0.69374,-0.69374,-0.69374,-0.69374,-0.69374,-0.69374,-0.69374,-0.69374,-0.69375,-0.69375,-0.69462,-0.69462,-0.69462,-0.69462,-0.69462,-0.69462,-0.69462
-0.70808,-0.70808,-0.70808,-0.70808,-0.70808,-0.70793,-0.70793,-0.70815,-0.70815,-0.70815,-0.70815,-0.70815,-0.70815,-0.70815,-0.70815,-0.70799,-0.70799,-0.70799,-0.70799,-0.70799,-0.70799,-0.70799,-0.70799,-0.70799,-0.70799,-0.70784,-0.70784,-0.70784,-0.70784,-0.70784,-0.70784,-0.70784,-0.70784,-0.70784,-0.70784,-0.70784,-0.70768,-0.70768,-0.70768,-0.70768,-0.70768,-0.70768,-0.70768,-0.70768,-0.70768,-0.70768,-0.70753,-0.70753,-0.70753,-0.70753,-0.70753,-0.70753,-0.70753,-0.70753,-0.70753,-0.70753,-0.70753,-0.70738,-0.70738,-0.70738,-0.70738,-0.70738,-0.70738,-0.70738,-0.70738,-0.70759,-0.70759,-0.70744,-0.70744,-0.70744,-0.70744,-0.70744,-0.70744,-0.70744,-0.70759,-0.70738,-0.70753,-0.70769,-0.70784,-0.708,-0.70815,-0.70809,-0.70824,-0.7084,-0.70855,-0.70855,-0.70871,-0.70865,-0.7088,-0.70896,-0.70911,-0.70927,-0.70942,-0.70936,-0.70951,-0.70952,-0.70967,-0.70982,-0.70998,-0.70992,-0.71007,-0.71023,-0.71038,-0.71054,-0.71054,-0.71048,-0.71063,-0.71078,-0.71094,-0.71109,-0.71125,-0.71118,-0.71134,-0.71149,-0.71149,-0.71165,-0.7118,-0.71196,-0.71189,-0.71205,-0.7122,-0.71236,-0.71251,-0.71267,-0.71245,-0.7126,-0.71384,-0.83682,-0.8237,-0.6978,-0.69656,-0.69569,-0.69569,-0.69569,-0.69569,-0.69569,-0.69569,-0.69569,-0.69569,-0.69569,-0.69569,-0.69569,-0.69569,-0.69569,-0.69569,-0.69482,-0.69482,-0.69545,-0.69545,-0.69545,-0.69545,-0.69545,-0.69545,-0.69545,-0.69545,-0.69545,-0.69545,-0.69545,-0.69457,-0.69457,-0.69457,-0.69457,-0.69457,-0.69457,-0.69457,-0.69457,-0.69457,-0.69457,-0.69457,-0.69457,-0.69457,-0.69457,-0.6937,-0.6937,-0.6937,-0.6937,-0.6937,-0.6937,-0.6937,-0.6937,-0.6937,-0.6937,-0.6937,-0.6937,-0.6937,-0.6937,-0.6937,-0.6937,-0.6937,-0.6937,-0.6937,-0.6937,-0.6937,-0.6937,-0.6937,-0.69371,-0.69371,-0.69371,-0.69371,-0.69371,-0.69371,-0.69371,-0.69371,-0.69372,-0.69372,-0.69372,-0.69372,-0.69372,-0.69372,-0.69372,-0.69372,-0.69372,-0.69372,-0.69372,-0.69372,-0.69372,-0.69372,-0.69372,-0.69372,-0.69372,-0.69372,-0.69373,-0.69373,-0.69373,-0.69373,-0.69373,-0.69373,-0.69373,-0.69373,-0.69373,-0.69373,-0.69373,-0.69373,-0.69373,-0.69374,-0.69374,-0.69374,-0.69374,-0.69374,-0.69374,-0.69374,-0.69374,-0.69374,-0.69374,-0.69374,-0.69374,-0.69374,-0.69374,-0.69375,-0.69375,-0.69375,-0.69462,-0.69462,-0.69462,-0.69462,-0.69462
-0.70808,-0.70808,-0.70793,-0.70793,-0.70815,-0.70815,-0.70815,-0.70815,-0.70815,-0.70815,-0.70815,-0.70815,-0.70799,-0.70799,-0.70799,-0.70799,-0.70799,-0.70799,-0.70799,-0.70799,-0.70799,-0.70799,-0.70784,-0.70784,-0.70784,-0.70784,-0.70784,-0.70784,-0.70784,-0.70784,-0.70784,-0.70784,-0.70784,-0.70768,-0.70768,-0.70768,-0.70768,-0.70768,-0.70768,-0.70768,-0.70768,-0.70768,-0.70768,-0.70753,-0.70753,-0.70753,-0.70753,-0.70753,-0.70753,-0.70753,-0.70753,-0.70753,-0.70753,-0.70753,-0.70738,-0.70738,-0.70738,-0.70738,-0.70738,-0.70738,-0.70738,-0.70738,-0.70759,-0.70759,-0.70744,-0.70744,-0.70744,-0.70744,-0.70744,-0.70744,-0.70744,-0.70744,-0.70744,-0.70744,-0.70738,-0.70753,-0.70769,-0.70769,-0.70784,-0.708,-0.70815,-0.70809,-0.70824,-0.7084,-0.70855,-0.70871,-0.70886,-0.70865,-0.7088,-0.70896,-0.70911,-0.70927,-0.70942,-0.70936,-0.70951,-0.70967,-0.70982,-0.70982,-0.70998,-0.70992,-0.71007,-0.71023,-0.71038,-0.71054,-0.71069,-0.71063,-0.71063,-0.71078,-0.71094,-0.71109,-0.71125,-0.71118,-0.71134,-0.71149,-0.71165,-0.7118,-0.7118,-0.71174,-0.71189,-0.71205,-0.7122,-0.71236,-0.71251,-0.71245,-0.7126,-0.71276,-0.71384,-0.83549,-0.82371,-0.6978,-0.69656,-0.69656,-0.69569,-0.69569,-0.69569,-0.69569,-0.69569,-0.69569,-0.69569,-0.69569,-0.69569,-0.69569,-0.69569,-0.69569,-0.69569,-0.69482,-0.69482,-0.69482,-0.69545,-0.69545,-0.69545,-0.69545,-0.69545,-0.69545,-0.69545,-0.69545,-0.69545,-0.69545,-0.69545,-0.69457,-0.69457,-0.69457,-0.69457,-0.69457,-0.69457,-0.69457,-0.69457,-0.69457,-0.69457,-0.69457,-0.69457,-0.69457,-0.6937,-0.6937,-0.6937,-0.6937,-0.6937,-0.6937,-0.6937,-0.6937,-0.6937,-0.6937,-0.6937,-0.69432,-0.6937,-0.6937,-0.6937,-0.6937,-0.6937,-0.6937,-0.6937,-0.6937,-0.6937,-0.6937,-0.6937,-0.69371,-0.69371,-0.69371,-0.69371,-0.69371,-0.69371,-0.69371,-0.69371,-0.69371,-0.69372,-0.69372,-0.69372,-0.69372,-0.69372,-0.69372,-0.69372,-0.69372,-0.69372,-0.69372,-0.69372,-0.69372,-0.69372,-0.69372,-0.69372,-0.69372,-0.69372,-0.69372,-0.69373,-0.69373,-0.69373,-0.69373,-0.69373,-0.69373,-0.69373,-0.69373,-0.69373,-0.69373,-0.69373,-0.69373,-0.69373,-0.69374,-0.69374,-0.69374,-0.69374,-0.69374,-0.69374,-0.69374,-0.69374,-0.69374,-0.69374,-0.69374,-0.69374,-0.69374,-0.69375,-0.69375,-0.69375,-0.69375,-0.69375,-0.69462,-0.69462,-0.69462
-0.70793,-0.70814,-0.70814,-0.70814,-0.70814,-0.70814,-0.70815,-0.70815,-0.70815,-0.70799,-0.70799,-0.70799,-0.70799,-0.70799,-0.70799,-0.70799,-0.70799,-0.70799,-0.70799,-0.70784,-0.70784,-0.70784,-0.70784,-0.70784,-0.70784,-0.70784,-0.70784,-0.70784,-0.70784,-0.70784,-0.70768,-0.70768,-0.70768,-0.70768,-0.70768,-0.70768,-0.70768,-0.70768,-0.70768,-0.70768,-0.70753,-0.70753,-0.70753,-0.70753,-0.70753,-0.70753,-0.70753,-0.70753,-0.70753,-0.70753,-0.70738,-0.70738,-0.70738,-0.70738,-0.70738,-0.70738,-0.70738,-0.70738,-0.70738,-0.70759,-0.70759,-0.70744,-0.70744,-0.70744,-0.70744,-0.70744,-0.70744,-0.70744,-0.70744,-0.70744,-0.70744,-0.70728,-0.70744,-0.70744,-0.70738,-0.70753,-0.70769,-0.70784,-0.708,-0.708,-0.70794,-0.70809,-0.70824,-0.7084,-0.70855,-0.70871,-0.70865,-0.7088,-0.70896,-0.70896,-0.70911,-0.70927,-0.70942,-0.70936,-0.70951,-0.70967,-0.70982,-0.70998,-0.71013,-0.70992,-0.71007,-0.71023,-0.71038,-0.71054,-0.71069,-0.71063,-0.71078,-0.71094,-0.71094,-0.71109,-0.71125,-0.71118,-0.71134,-0.71149,-0.71165,-0.7118,-0.71196,-0.71189,-0.71189,-0.71205,-0.7122,-0.71236,-0.71251,-0.71245,-0.7126,-0.71276,-0.71384,-0.83649,-0.82302,-0.6978,-0.69656,-0.69656,-0.69569,-0.69569,-0.69569,-0.69569,-0.69569,-0.69569,-0.69569,-0.69569,-0.69569,-0.69569,-0.69569,-0.69569,-0.69569,-0.69482,-0.69482,-0.69482,-0.69545,-0.69545,-0.69545,-0.69545,-0.69545,-0.69545,-0.69545,-0.69545,-0.69545,-0.69545,-0.69545,-0.69457,-0.69457,-0.69457,-0.69457,-0.69457,-0.69457,-0.69457,-0.69457,-0.69457,-0.69457,-0.69457,-0.69457,-0.69457,-0.6937,-0.6937,-0.6937,-0.6937,-0.6937,-0.6937,-0.6937,-0.6937,-0.6937,-0.6937,-0.6937,-0.69432,-0.69432,-0.69432,-0.6937,-0.6937,-0.6937,-0.6937,-0.6937,-0.6937,-0.6937,-0.6937,-0.6937,-0.69371,-0.69371,-0.69371,-0.69371,-0.69371,-0.69371,-0.69371,-0.69371,-0.69371,-0.69372,-0.69372,-0.69372,-0.69372,-0.69372,-0.69372,-0.69372,-0.69372,-0.69372,-0.69372,-0.69372,-0.69372,-0.69372,-0.69372,-0.69372,-0.69372,-0.69372,-0.69372,-0.69373,-0.69373,-0.69373,-0.69373,-0.69373,-0.69373,-0.69373,-0.69373,-0.69373,-0.69373,-0.69373,-0.69373,-0.69373,-0.69374,-0.69374,-0.69374,-0.69374,-0.69374,-0.69374,-0.69374,-0.69374,-0.69374,-0.69374,-0.69374,-0.69374,-0.69374,-0.69375,-0.69375,-0.69375,-0.69375,-0.69375,-0.69375,-0.69375,-0.69375
-0.70814,-0.70814,-0.70814,-0.70814,-0.70814,-0.70814,-0.70799,-0.70799,-0.70799,-0.70799,-0.70799,-0.70799,-0.70799,-0.70799,-0.70799,-0.70799,-0.70784,-0.70784,-0.70784,-0.70784,-0.70784,-0.70784,-0.70784,-0.70784,-0.70784,-0.70784,-0.70784,-0.70768,-0.70768,-0.70768,-0.70768,-0.70768,-0.70768,-0.70768,-0.70768,-0.70768,-0.70768,-0.70753,-0.70753,-0.70753,-0.70753,-0.70753,-0.70753,-0.70753,-0.70753,-0.70753,-0.70753,-0.70738,-0.70738,-0.70738,-0.70738,-0.70738,-0.70738,-0.70738,-0.70738,-0.70759,-0.70759,-0.70759,-0.70744,-0.70744,-0.70744,-0.70744,-0.70744,-0.70744,-0.70744,-0.70744,-0.70744,-0.70744,-0.70728,-0.70728,-0.70728,-0.70728,-0.70728,-0.70744,-0.70738,-0.70753,-0.70769,-0.70784,-0.708,-0.70815,-0.70809,-0.70809,-0.70824,-0.7084,-0.70855,-0.70871,-0.70865,-0.7088,-0.70896,-0.70911,-0.70927,-0.70927,-0.70921,-0.70936,-0.70951,-0.70967,-0.70982,-0.70998,-0.70992,-0.71007,-0.71007,-0.71023,-0.71038,-0.71054,-0.71069,-0.71063,-0.71078,-0.71094,-0.71109,-0.71125,-0.71125,-0.71118,-0.71134,-0.71149,-0.71165,-0.7118,-0.71196,-0.71189,-0.71205,-0.7122,-0.7122,-0.71236,-0.71251,-0.71245,-0.7126,-0.71276,-0.71384,-0.83615,-0.82302,-0.6978,-0.69656,-0.69656,-0.69569,-0.69569,-0.69569,-0.69569,-0.69569,-0.69569,-0.69569,-0.69569,-0.69569,-0.69569,-0.69569,-0.69569,-0.69569,-0.69569,-0.69482,-0.69482,-0.69545,-0.69545,-0.69545,-0.69545,-0.69545,-0.69545,-0.69545,-0.69545,-0.69545,-0.69545,-0.69545,-0.69457,-0.69457,-0.69457,-0.69457,-0.69457,-0.69457,-0.69457,-0.69457,-0.69457,-0.69457,-0.69457,-0.69457,-0.69457,-0.6937,-0.6937,-0.6937,-0.6937,-0.6937,-0.6937,-0.6937,-0.6937,-0.6937,-0.6937,-0.6937,-0.69432,-0.69432,-0.69432,-0.69432,-0.69433,-0.6937,-0.6937,-0.6937,-0.6937,-0.6937,-0.6937,-0.6937,-0.6937,-0.69371,-0.69371,-0.69371,-0.69371,-0.69371,-0.69371,-0.69371,-0.69371,-0.69371,-0.69372,-0.69372,-0.69372,-0.69372,-0.69372,-0.69372,-0.69372,-0.69372,-0.69372,-0.69372,-0.69372,-0.69372,-0.69372,-0.69372,-0.69372,-0.69372,-0.69372,-0.69373,-0.69373,-0.69373,-0.69373,-0.69373,-0.69373,-0.69373,-0.69373,-0.69373,-0.69373,-0.69373,-0.69373,-0.69373,-0.69373,-0.69374,-0.69374,-0.69374,-0.69374,-0.69374,-0.69374,-0.69374,-0.69374,-0.69374,-0.69374,-0.69374,-0.69374,-0.69374,-0.69375,-0.69375,-0.69375,-0.69375,-0.69375,-0.69375,-0.69375
-0.70814,-0.70814,-0.70814,-0.70799,-0.70799,-0.70799,-0.70799,-0.70799,-0.70799,-0.70799,-0.70799,-0.70799,-0.70799,-0.70784,-0.70784,-0.70784,-0.70784,-0.70784,-0.70784,-0.70784,-0.70784,-0.70784,-0.70784,-0.70784,-0.70768,-0.70768,-0.70768,-0.70768,-0.70768,-0.70768,-0.70768,-0.70768,-0.70768,-0.70768,-0.70753,-0.70753,-0.70753,-0.70753,-0.70753,-0.70753,-0.70753,-0.70753,-0.70753,-0.70753,-0.70737,-0.70737,-0.70737,-0.70738,-0.70738,-0.70738,-0.70738,-0.70738,-0.70759,-0.70759,-0.70759,-0.70744,-0.70744,-0.70744,-0.70744,-0.70744,-0.70744,-0.70744,-0.70744,-0.70744,-0.70744,-0.70728,-0.70728,-0.70728,-0.70728,-0.70728,-0.70728,-0.70728,-0.70744,-0.70744,-0.70738,-0.70753,-0.70769,-0.70784,-0.708,-0.70815,-0.70809,-0.70824,-0.7084,-0.7084,-0.70855,-0.70871,-0.70865,-0.7088,-0.70896,-0.70911,-0.70927,-0.70942,-0.70936,-0.70936,-0.70951,-0.70967,-0.70982,-0.70998,-0.70992,-0.71007,-0.71023,-0.71038,-0.71038,-0.71054,-0.71047,-0.71063,-0.71078,-0.71094,-0.71109,-0.71125,-0.7114,-0.71134,-0.71134,-0.71149,-0.71165,-0.7118,-0.71196,-0.71189,-0.71205,-0.7122,-0.71236,-0.71251,-0.71251,-0.71245,-0.7126,-0.71276,-0.71384,-0.83648,-0.82302,-0.6978,-0.69656,-0.69656,-0.69569,-0.69569,-0.69569,-0.69569,-0.69569,-0.69569,-0.69569,-0.69569,-0.69569,-0.69569,-0.69569,-0.69569,-0.69569,-0.69569,-0.69482,-0.69482,-0.69545,-0.69545,-0.69545,-0.69545,-0.69545,-0.69545,-0.69545,-0.69545,-0.69545,-0.69545,-0.69545,-0.69457,-0.69457,-0.69457,-0.69457,-0.69457,-0.69457,-0.69457,-0.69457,-0.69457,-0.69457,-0.69457,-0.69457,-0.69457,-0.69457,-0.6937,-0.6937,-0.6937,-0.6937,-0.6937,-0.6937,-0.6937,-0.6937,-0.6937,-0.6937,-0.69432,-0.69432,-0.69432,-0.69432,-0.69433,-0.69433,-0.69433,-0.6937,-0.6937,-0.6937,-0.6937,-0.6937,-0.6937,-0.69371,-0.69371,-0.69371,-0.69371,-0.69371,-0.69371,-0.69371,-0.69371,-0.69371,-0.69372,-0.69372,-0.69372,-0.69372,-0.69372,-0.69372,-0.69372,-0.69372,-0.69372,-0.69372,-0.69372,-0.69372,-0.69372,-0.69372,-0.69372,-0.69372,-0.69372,-0.69372,-0.69373,-0.69373,-0.69373,-0.69373,-0.69373,-0.69373,-0.69373,-0.69373,-0.69373,-0.69373,-0.69373,-0.69373,-0.69373,-0.69374,-0.69374,-0.69374,-0.69374,-0.69374,-0.69374,-0.69374,-0.69374,-0.69374,-0.69374,-0.69374,-0.69374,-0.69374,-0.69375,-0.69375,-0.69375,-0.69375,-0.69375,-0.69375,-0.69375
-0.70799,-0.70799,-0.70799,-0.70799,-0.70799,-0.70799,-0.70799,-0.70799,-0.70799,-0.70799,-0.70783,-0.70783,-0.70783,-0.70784,-0.70784,-0.70784,-0.70784,-0.70784,-0.70784,-0.70784,-0.70768,-0.70768,-0.70768,-0.70768,-0.70768,-0.70768,-0.70768,-0.70768,-0.70768,-0.70768,-0.70768,-0.70753,-0.70753,-0.70753,-0.70753,-0.70753,-0.70753,-0.70753,-0.70753,-0.70753,-0.70753,-0.70737,-0.70737,-0.70737,-0.70737,-0.70737,-0.70737,-0.70737,-0.70737,-0.70759,-0.70759,-0.70759,-0.70744,-0.70744,-0.70744,-0.70744,-0.70744,-0.70744,-0.70744,-0.70744,-0.70744,-0.70744,-0.70728,-0.70728,-0.70728,-0.70728,-0.70728,-0.70728,-0.70728,-0.70728,-0.70728,-0.70728,-0.70744,-0.70759,-0.70753,-0.70753,-0.70769,-0.70784,-0.708,-0.70815,-0.70809,-0.70824,-0.7084,-0.70855,-0.70871,-0.70871,-0.70865,-0.7088,-0.70896,-0.70911,-0.70927,-0.70942,-0.70936,-0.70951,-0.70967,-0.70967,-0.70982,-0.70998,-0.70992,-0.71007,-0.71023,-0.71038,-0.71054,-0.71069,-0.71047,-0.71063,-0.71078,-0.71094,-0.71109,-0.71125,-0.71118,-0.71134,-0.71149,-0.71165,-0.71165,-0.7118,-0.71174,-0.71189,-0.71205,-0.7122,-0.71236,-0.71251,-0.71267,-0.7126,-0.7126,-0.71276,-0.71399,-0.83682,-0.82371,-0.6978,-0.69657,-0.69657,-0.69657,-0.69569,-0.69569,-0.69569,-0.69569,-0.69569,-0.69569,-0.69569,-0.69569,-0.69569,-0.69569,-0.69569,-0.69569,-0.69569,-0.69482,-0.69482,-0.69482,-0.69545,-0.69545,-0.69545,-0.69545,-0.69545,-0.69545,-0.69545,-0.69545,-0.69545,-0.69545,-0.69457,-0.69457,-0.69457,-0.69457,-0.69457,-0.69457,-0.69457,-0.69457,-0.69457,-0.69457,-0.69457,-0.69457,-0.69457,-0.69457,-0.6937,-0.6937,-0.6937,-0.6937,-0.6937,-0.6937,-0.6937,-0.6937,-0.6937,-0.6937,-0.69432,-0.69432,-0.69432,-0.69432,-0.69432,-0.69433,-0.69433,-0.69433,-0.6937,-0.6937,-0.6937,-0.6937,-0.6937,-0.69371,-0.69371,-0.69371,-0.69371,-0.69371,-0.69371,-0.69371,-0.69371,-0.69371,-0.69372,-0.69372,-0.69372,-0.69372,-0.69372,-0.69372,-0.69372,-0.69372,-0.69372,-0.69372,-0.69372,-0.69372,-0.69372,-0.69372,-0.69372,-0.69372,-0.69372,-0.69372,-0.69373,-0.69373,-0.69373,-0.69373,-0.69373,-0.69373,-0.69373,-0.69373,-0.69373,-0.69373,-0.69373,-0.69373,-0.69373,-0.69374,-0.69374,-0.69374,-0.69374,-0.69374,-0.69374,-0.69374,-0.69374,-0.69374,-0.69374,-0.69374,-0.69374,-0.69374,-0.69374,-0.69375,-0.69375,-0.69375,-0.69375,-0.69375,-0.69375
-0.70799,-0.70799,-0.70799,-0.70799,-0.70799,-0.70799,-0.70799,-0.70783,-0.70783,-0.70783,-0.70783,-0.70783,-0.70783,-0.70783,-0.70783,-0.70784,-0.70784,-0.70768,-0.70768,-0.70768,-0.70768,-0.70768,-0.70768,-0.70768,-0.70768,-0.70768,-0.70768,-0.70768,-0.70753,-0.70753,-0.70753,-0.70753,-0.70753,-0.70753,-0.70753,-0.70753,-0.70753,-0.70753,-0.70737,-0.70737,-0.70737,-0.70737,-0.70737,-0.70737,-0.70737,-0.70737,-0.70759,-0.70759,-0.70743,-0.70743,-0.70743,-0.70744,-0.70744,-0.70744,-0.70744,-0.70744,-0.70744,-0.70744,-0.70744,-0.70728,-0.70728,-0.70728,-0.70728,-0.70728,-0.70728,-0.70728,-0.70728,-0.70728,-0.70728,-0.70713,-0.70728,-0.70728,-0.70744,-0.70738,-0.70753,-0.70768,-0.70784,-0.70784,-0.708,-0.70794,-0.70809,-0.70824,-0.7084,-0.70855,-0.70871,-0.70886,-0.7088,-0.7088,-0.70896,-0.70911,-0.70927,-0.70942,-0.70936,-0.70951,-0.70967,-0.70982,-0.70998,-0.70998,-0.70992,-0.71007,-0.71023,-0.71038,-0.71054,-0.71069,-0.71063,-0.71078,-0.71078,-0.71094,-0.71109,-0.71125,-0.71118,-0.71134,-0.71149,-0.71165,-0.7118,-0.71196,-0.71174,-0.71189,-0.71205,-0.7122,-0.71236,-0.71251,-0.71245,-0.7126,-0.71276,-0.71291,-0.71399,-0.83649,-0.82371,-0.6978,-0.69657,-0.69657,-0.69657,-0.6957,-0.6957,-0.6957,-0.69569,-0.69569,-0.69569,-0.69569,-0.69569,-0.69569,-0.69569,-0.69569,-0.69569,-0.69569,-0.69482,-0.69482,-0.69482,-0.69545,-0.69545,-0.69545,-0.69545,-0.69545,-0.69545,-0.69545,-0.69545,-0.69545,-0.69545,-0.69545,-0.69457,-0.69457,-0.69457,-0.69457,-0.69457,-0.69457,-0.69457,-0.69457,-0.69457,-0.69457,-0.69457,-0.69457,-0.69457,-0.6937,-0.6937,-0.6937,-0.6937,-0.6937,-0.6937,-0.6937,-0.6937,-0.6937,-0.6937,-0.6937,-0.69432,-0.69432,-0.69432,-0.69432,-0.69433,-0.69433,-0.69433,-0.69433,-0.69433,-0.6937,-0.6937,-0.6937,-0.6937,-0.69371,-0.69371,-0.69371,-0.69371,-0.69371,-0.69371,-0.69371,-0.69371,-0.69371,-0.69372,-0.69372,-0.69372,-0.69372,-0.69372,-0.69372,-0.69372,-0.69372,-0.69372,-0.69372,-0.69372,-0.69372,-0.69372,-0.69372,-0.69372,-0.69372,-0.69372,-0.69373,-0.69373,-0.69373,-0.69373,-0.69373,-0.69373,-0.69373,-0.69373,-0.69373,-0.69373,-0.69373,-0.69373,-0.69373,-0.69373,-0.69374,-0.69374,-0.69374,-0.69374,-0.69374,-0.69374,-0.69374,-0.69374,-0.69374,-0.69374,-0.69374,-0.69374,-0.69374,-0.69375,-0.69375,-0.69375,-0.69375,-0.69375,-0.69375
-0.70799,-0.70799,-0.70799,-0.70799,-0.70783,-0.70783,-0.70783,-0.70783,-0.70783,-0.70783,-0.70783,-0.70783,-0.70783,-0.70783,-0.70768,-0.70768,-0.70768,-0.70768,-0.70768,-0.70768,-0.70768,-0.70768,-0.70768,-0.70768,-0.70768,-0.70753,-0.70753,-0.70753,-0.70753,-0.70753,-0.70753,-0.70753,-0.70753,-0.70753,-0.70753,-0.70737,-0.70737,-0.70737,-0.70737,-0.70737,-0.70737,-0.70737,-0.70737,-0.70759,-0.70759,-0.70743,-0.70743,-0.70743,-0.70743,-0.70743,-0.70743,-0.70743,-0.70743,-0.70743,-0.70744,-0.70744,-0.70728,-0.70728,-0.70728,-0.70728,-0.70728,-0.70728,-0.70728,-0.70728,-0.70728,-0.70728,-0.70713,-0.70713,-0.70713,-0.70713,-0.70713,-0.70728,-0.70744,-0.70738,-0.70753,-0.70768,-0.70784,-0.708,-0.70815,-0.70794,-0.70809,-0.70824,-0.7084,-0.70855,-0.70871,-0.70865,-0.7088,-0.70896,-0.70911,-0.70911,-0.70927,-0.70921,-0.70936,-0.70951,-0.70967,-0.70982,-0.70998,-0.71013,-0.71007,-0.71007,-0.71023,-0.71038,-0.71054,-0.71069,-0.71063,-0.71078,-0.71094,-0.71109,-0.71109,-0.71125,-0.71118,-0.71134,-0.71149,-0.71165,-0.7118,-0.71196,-0.71189,-0.71205,-0.71205,-0.7122,-0.71236,-0.71251,-0.71245,-0.7126,-0.71276,-0.71291,-0.71399,-0.83615,-0.82302,-0.6978,-0.69657,-0.69657,-0.69657,-0.6957,-0.6957,-0.6957,-0.6957,-0.6957,-0.69569,-0.69569,-0.69569,-0.69569,-0.69569,-0.69569,-0.69569,-0.69569,-0.69482,-0.69482,-0.69482,-0.69545,-0.69545,-0.69545,-0.69545,-0.69545,-0.69545,-0.69545,-0.69545,-0.69545,-0.69545,-0.69545,-0.69457,-0.69457,-0.69457,-0.69457,-0.69457,-0.69457,-0.69457,-0.69457,-0.69457,-0.69457,-0.69457,-0.69457,-0.69457,-0.6937,-0.6937,-0.6937,-0.6937,-0.6937,-0.6937,-0.6937,-0.6937,-0.6937,-0.6937,-0.6937,-0.69432,-0.69432,-0.69432,-0.69432,-0.69433,-0.69433,-0.69433,-0.69433,-0.69433,-0.69433,-0.69433,-0.6937,-0.6937,-0.69371,-0.69371,-0.69371,-0.69371,-0.69371,-0.69371,-0.69371,-0.69371,-0.69371,-0.69372,-0.69372,-0.69372,-0.69372,-0.69372,-0.69372,-0.69372,-0.69372,-0.69372,-0.69372,-0.69372,-0.69372,-0.69372,-0.69372,-0.69372,-0.69372,-0.69372,-0.69372,-0.69373,-0.69373,-0.69373,-0.69373,-0.69373,-0.69373,-0.69373,-0.69373,-0.69373,-0.69373,-0.69373,-0.69373,-0.69373,-0.69374,-0.69374,-0.69374,-0.69374,-0.69374,-0.69374,-0.69374,-0.69374,-0.69374,-0.69374,-0.69374,-0.69374,-0.69374,-0.69375,-0.69375,-0.69375,-0.69375,-0.69375,-0.69375
-0.70799,-0.70783,-0.70783,-0.70783,-0.70783,-0.70783,-0.70783,-0.70783,-0.70783,-0.70783,-0.70783,-0.70768,-0.70768,-0.70768,-0.70768,-0.70768,-0.70768,-0.70768,-0.70768,-0.70768,-0.70768,-0.70768,-0.70753,-0.70753,-0.70753,-0.70753,-0.70753,-0.70753,-0.70753,-0.70753,-0.70753,-0.70753,-0.70737,-0.70737,-0.70737,-0.70737,-0.70737,-0.70737,-0.70737,-0.70737,-0.70759,-0.70759,-0.70743,-0.70743,-0.70743,-0.70743,-0.70743,-0.70743,-0.70743,-0.70743,-0.70743,-0.70743,-0.70743,-0.70728,-0.70728,-0.70728,-0.70728,-0.70728,-0.70728,-0.70728,-0.70728,-0.70728,-0.70728,-0.70713,-0.70713,-0.70713,-0.70713,-0.70713,-0.70713,-0.70713,-0.70728,-0.70728,-0.70744,-0.70738,-0.70753,-0.70768,-0.70784,-0.708,-0.70815,-0.70809,-0.70824,-0.70824,-0.7084,-0.70855,-0.70871,-0.70865,-0.7088,-0.70896,-0.70911,-0.70927,-0.70942,-0.70921,-0.70936,-0.70951,-0.70967,-0.70982,-0.70998,-0.70992,-0.71007,-0.71023,-0.71038,-0.71038,-0.71054,-0.71069,-0.71063,-0.71078,-0.71094,-0.71109,-0.71125,-0.7114,-0.71118,-0.71134,-0.71149,-0.71165,-0.7118,-0.71196,-0.71189,-0.71205,-0.7122,-0.71236,-0.71236,-0.71251,-0.71245,-0.7126,-0.71276,-0.71291,-0.71399,-0.83682,-0.82371,-0.6978,-0.69657,-0.69657,-0.69657,-0.6957,-0.6957,-0.6957,-0.6957,-0.6957,-0.6957,-0.6957,-0.6957,-0.69569,-0.69569,-0.69569,-0.69569,-0.69569,-0.69569,-0.69482,-0.69482,-0.69545,-0.69545,-0.69545,-0.69545,-0.69545,-0.69545,-0.69545,-0.69545,-0.69545,-0.69545,-0.69545,-0.69457,-0.69457,-0.69457,-0.69457,-0.69457,-0.69457,-0.69457,-0.69457,-0.69457,-0.69457,-0.69457,-0.69457,-0.69457,-0.69457,-0.6937,-0.6937,-0.6937,-0.6937,-0.6937,-0.6937,-0.6937,-0.6937,-0.6937,-0.6937,-0.69432,-0.69432,-0.69432,-0.69432,-0.69432,-0.69433,-0.69433,-0.69433,-0.69433,-0.69433,-0.69433,-0.69433,-0.6937,-0.6937,-0.69371,-0.69371,-0.69371,-0.69371,-0.69371,-0.69371,-0.69371,-0.69371,-0.69372,-0.69372,-0.69372,-0.69372,-0.69372,-0.69372,-0.69372,-0.69372,-0.69372,-0.69372,-0.69372,-0.69372,-0.69372,-0.69372,-0.69372,-0.69372,-0.69372,-0.69372,-0.69373,-0.69373,-0.69373,-0.69373,-0.69373,-0.69373,-0.69373,-0.69373,-0.69373,-0.69373,-0.69373,-0.69373,-0.69373,-0.69374,-0.69374,-0.69374,-0.69374,-0.69374,-0.69374,-0.69374,-0.69374,-0.69374,-0.69374,-0.69374,-0.69374,-0.69374,-0.69374,-0.69375,-0.69375,-0.69375,-0.69375,-0.69375
-0.70783,-0.70783,-0.70783,-0.70783,-0.70783,-0.70783,-0.70783,-0.70783,-0.70768,-0.70768,-0.70768,-0.70768,-0.70768,-0.70768,-0.70768,-0.70768,-0.70768,-0.70768,-0.70752,-0.70752,-0.70752,-0.70753,-0.70753,-0.70753,-0.70753,-0.70753,-0.70753,-0.70753,-0.70753,-0.70737,-0.70737,-0.70737,-0.70737,-0.70737,-0.70737,-0.70737,-0.70737,-0.70759,-0.70759,-0.70743,-0.70743,-0.70743,-0.70743,-0.70743,-0.70743,-0.70743,-0.70743,-0.70743,-0.70743,-0.70743,-0.70728,-0.70728,-0.70728,-0.70728,-0.70728,-0.70728,-0.70728,-0.70728,-0.70728,-0.70728,-0.70713,-0.70713,-0.70713,-0.70713,-0.70713,-0.70713,-0.70713,-0.70713,-0.70713,-0.70713,-0.70728,-0.70744,-0.70759,-0.70738,-0.70753,-0.70768,-0.70784,-0.708,-0.70815,-0.70809,-0.70824,-0.7084,-0.70855,-0.70855,-0.70871,-0.70865,-0.7088,-0.70896,-0.70911,-0.70927,-0.70942,-0.70936,-0.70951,-0.70951,-0.70967,-0.70982,-0.70998,-0.70992,-0.71007,-0.71023,-0.71038,-0.71054,-0.71054,-0.71047,-0.71063,-0.71078,-0.71094,-0.71109,-0.71125,-0.71118,-0.71134,-0.71149,-0.71149,-0.71165,-0.7118,-0.71196,-0.71189,-0.71205,-0.7122,-0.71236,-0.71251,-0.71267,-0.71245,-0.7126,-0.71276,-0.71291,-0.71415,-0.83649,-0.82302,-0.6978,-0.69657,-0.69657,-0.69657,-0.69657,-0.6957,-0.6957,-0.6957,-0.6957,-0.6957,-0.6957,-0.6957,-0.6957,-0.6957,-0.6957,-0.69569,-0.69569,-0.69569,-0.69482,-0.69482,-0.69545,-0.69545,-0.69545,-0.69545,-0.69545,-0.69545,-0.69545,-0.69545,-0.69545,-0.69545,-0.69545,-0.69457,-0.69457,-0.69457,-0.69457,-0.69457,-0.69457,-0.69457,-0.69457,-0.69457,-0.69457,-0.69457,-0.69457,-0.69457,-0.69457,-0.6937,-0.6937,-0.6937,-0.6937,-0.6937,-0.6937,-0.6937,-0.6937,-0.6937,-0.6937,-0.69432,-0.69432,-0.69432,-0.69432,-0.69432,-0.69433,-0.69433,-0.69433,-0.69433,-0.69433,-0.69433,-0.69433,-0.69433,-0.69433,-0.69433,-0.69371,-0.69371,-0.69371,-0.69371,-0.69371,-0.69371,-0.69371,-0.69371,-0.69372,-0.69372,-0.69372,-0.69372,-0.69372,-0.69372,-0.69372,-0.69372,-0.69372,-0.69372,-0.69372,-0.69372,-0.69372,-0.69372,-0.69372,-0.69372,-0.69372,-0.69372,-0.69373,-0.69373,-0.69373,-0.69373,-0.69373,-0.69373,-0.69373,-0.69373,-0.69373,-0.69373,-0.69373,-0.69373,-0.69373,-0.69374,-0.69374,-0.69374,-0.69374,-0.69374,-0.69374,-0.69374,-0.69374,-0.69374,-0.69374,-0.69374,-0.69374,-0.69374,-0.69375,-0.69375,-0.69375,-0.69375,-0.69375
-0.70783,-0.70783,-0.70783,-0.70783,-0.70783,-0.70768,-0.70768,-0.70768,-0.70768,-0.70768,-0.70768,-0.70768,-0.70768,-0.70768,-0.70768,-0.70752,-0.70752,-0.70752,-0.70752,-0.70752,-0.70752,-0.70752,-0.70752,-0.70752,-0.70753,-0.70753,-0.70737,-0.70737,-0.70737,-0.70737,-0.70737,-0.70737,-0.70737,-0.70737,-0.70759,-0.70759,-0.70743,-0.70743,-0.70743,-0.70743,-0.70743,-0.70743,-0.70743,-0.70743,-0.70743,-0.70743,-0.70743,-0.70728,-0.70728,-0.70728,-0.70728,-0.70728,-0.70728,-0.70728,-0.70728,-0.70728,-0.70728,-0.70712,-0.70712,-0.70712,-0.70713,-0.70713,-0.70713,-0.70713,-0.70713,-0.70713,-0.70713,-0.70697,-0.70713,-0.70713,-0.70728,-0.70744,-0.70738,-0.70753,-0.70768,-0.70768,-0.70784,-0.708,-0.70815,-0.70809,-0.70824,-0.7084,-0.70855,-0.70871,-0.70886,-0.70865,-0.7088,-0.70896,-0.70911,-0.70927,-0.70942,-0.70936,-0.70951,-0.70967,-0.70982,-0.70982,-0.70998,-0.70992,-0.71007,-0.71023,-0.71038,-0.71054,-0.71069,-0.71063,-0.71063,-0.71078,-0.71094,-0.71109,-0.71125,-0.71118,-0.71134,-0.71149,-0.71165,-0.7118,-0.7118,-0.71174,-0.71189,-0.71205,-0.7122,-0.71236,-0.71251,-0.71245,-0.7126,-0.71276,-0.71276,-0.71291,-0.71415,-0.83649,-0.82302,-0.6978,-0.69657,-0.69657,-0.69657,-0.69657,-0.6957,-0.6957,-0.6957,-0.6957,-0.6957,-0.6957,-0.6957,-0.6957,-0.6957,-0.6957,-0.6957,-0.6957,-0.69569,-0.69482,-0.69482,-0.69482,-0.69545,-0.69545,-0.69545,-0.69545,-0.69545,-0.69545,-0.69545,-0.69545,-0.69545,-0.69545,-0.69545,-0.69457,-0.69457,-0.69457,-0.69457,-0.69457,-0.69457,-0.69457,-0.69457,-0.69457,-0.69457,-0.69457,-0.69457,-0.69457,-0.6937,-0.6937,-0.6937,-0.6937,-0.6937,-0.6937,-0.6937,-0.6937,-0.6937,-0.6937,-0.6937,-0.69432,-0.69432,-0.69432,-0.69432,-0.69433,-0.69433,-0.69433,-0.69433,-0.69433,-0.69433,-0.69433,-0.69433,-0.69433,-0.69433,-0.69433,-0.69433,-0.69371,-0.69371,-0.69371,-0.69371,-0.69371,-0.69371,-0.69372,-0.69372,-0.69372,-0.69372,-0.69372,-0.69372,-0.69372,-0.69372,-0.69372,-0.69372,-0.69372,-0.69372,-0.69372,-0.69372,-0.69372,-0.69372,-0.69372,-0.69372,-0.69373,-0.69373,-0.69373,-0.69373,-0.69373,-0.69373,-0.69373,-0.69373,-0.69373,-0.69373,-0.69373,-0.69373,-0.69373,-0.69374,-0.69374,-0.69374,-0.69374,-0.69374,-0.69374,-0.69374,-0.69374,-0.69374,-0.69374,-0.69374,-0.69374,-0.69374,-0.69374,-0.69375,-0.69375,-0.69375,-0.69375
-0.70783,-0.70783,-0.70768,-0.70768,-0.70768,-0.70768,-0.70768,-0.70768,-0.70768,-0.70768,-0.70768,-0.70768,-0.70752,-0.70752,-0.70752,-0.70752,-0.70752,-0.70752,-0.70752,-0.70752,-0.70752,-0.70752,-0.70752,-0.70737,-0.70737,-0.70737,-0.70737,-0.70737,-0.70737,-0.70737,-0.70759,-0.70759,-0.70759,-0.70743,-0.70743,-0.70743,-0.70743,-0.70743,-0.70743,-0.70743,-0.70743,-0.70743,-0.70743,-0.70728,-0.70728,-0.70728,-0.70728,-0.70728,-0.70728,-0.70728,-0.70728,-0.70728,-0.70728,-0.70728,-0.70712,-0.70712,-0.70712,-0.70712,-0.70712,-0.70712,-0.70712,-0.70712,-0.70713,-0.70713,-0.70697,-0.70697,-0.70697,-0.70697,-0.70697,-0.70713,-0.70728,-0.70744,-0.70738,-0.70753,-0.70768,-0.70784,-0.70799,-0.708,-0.70794,-0.70809,-0.70824,-0.7084,-0.70855,-0.70871,-0.70865,-0.7088,-0.70896,-0.70896,-0.70911,-0.70927,-0.70942,-0.70936,-0.70951,-0.70967,-0.70982,-0.70998,-0.71013,-0.70992,-0.71007,-0.71023,-0.71038,-0.71054,-0.71069,-0.71063,-0.71078,-0.71094,-0.71094,-0.71109,-0.71125,-0.71118,-0.71134,-0.71149,-0.71165,-0.7118,-0.71196,-0.71189,-0.71189,-0.71205,-0.7122,-0.71236,-0.71251,-0.71245,-0.7126,-0.71276,-0.71291,-0.71307,-0.71415,-0.83649,-0.8237,-0.6978,-0.69657,-0.69657,-0.69657,-0.69657,-0.6957,-0.6957,-0.6957,-0.6957,-0.6957,-0.6957,-0.6957,-0.6957,-0.6957,-0.6957,-0.6957,-0.6957,-0.6957,-0.69482,-0.69482,-0.69482,-0.69545,-0.69545,-0.69545,-0.69545,-0.69545,-0.69545,-0.69545,-0.69545,-0.69545,-0.69545,-0.69545,-0.69457,-0.69457,-0.69457,-0.69457,-0.69457,-0.69457,-0.69457,-0.69457,-0.69457,-0.69457,-0.69457,-0.69457,-0.69457,-0.6937,-0.6937,-0.6937,-0.6937,-0.6937,-0.6937,-0.6937,-0.6937,-0.6937,-0.6937,-0.6937,-0.69432,-0.69432,-0.69432,-0.69345,-0.69432,-0.69433,-0.69433,-0.69433,-0.69433,-0.69433,-0.69433,-0.69433,-0.69433,-0.69433,-0.69433,-0.69433,-0.69433,-0.69371,-0.69371,-0.69371,-0.69371,-0.69371,-0.69371,-0.69372,-0.69372,-0.69372,-0.69372,-0.69372,-0.69372,-0.69372,-0.69372,-0.69372,-0.69372,-0.69372,-0.69372,-0.69372,-0.69372,-0.69372,-0.69372,-0.69372,-0.69373,-0.69373,-0.69373,-0.69373,-0.69373,-0.69373,-0.69373,-0.69373,-0.69373,-0.69373,-0.69373,-0.69373,-0.69373,-0.69373,-0.69374,-0.69374,-0.69374,-0.69374,-0.69374,-0.69374,-0.69374,-0.69374,-0.69374,-0.69374,-0.69374,-0.69374,-0.69374,-0.69375,-0.69375,-0.69375,-0.69375
-0.70768,-0.70768,-0.70768,-0.70768,-0.70768,-0.70768,-0.70768,-0.70768,-0.70768,-0.70752,-0.70752,-0.70752,-0.70752,-0.70752,-0.70752,-0.70752,-0.70752,-0.70752,-0.70752,-0.70752,-0.70737,-0.70737,-0.70737,-0.70737,-0.70737,-0.70737,-0.70737,-0.70759,-0.70759,-0.70759,-0.70743,-0.70743,-0.70743,-0.70743,-0.70743,-0.70743,-0.70743,-0.70743,-0.70743,-0.70743,-0.70728,-0.70728,-0.70728,-0.70728,-0.70728,-0.70728,-0.70728,-0.70728,-0.70728,-0.70728,-0.70728,-0.70712,-0.70712,-0.70712,-0.70712,-0.70712,-0.70712,-0.70712,-0.70712,-0.70712,-0.70712,-0.70697,-0.70697,-0.70697,-0.70697,-0.70697,-0.70697,-0.70697,-0.70713,-0.70713,-0.70728,-0.70744,-0.70738,-0.70753,-0.70768,-0.70784,-0.70799,-0.70815,-0.70809,-0.70809,-0.70824,-0.7084,-0.70855,-0.70871,-0.70865,-0.7088,-0.70896,-0.70911,-0.70927,-0.70927,-0.70921,-0.70936,-0.70951,-0.70967,-0.70982,-0.70998,-0.70992,-0.71007,-0.71023,-0.71023,-0.71038,-0.71054,-0.71069,-0.71063,-0.71078,-0.71094,-0.71109,-0.71125,-0.71125,-0.71118,-0.71134,-0.71149,-0.71165,-0.7118,-0.71196,-0.71189,-0.71205,-0.7122,-0.7122,-0.71236,-0.71251,-0.71245,-0.7126,-0.71276,-0.71291,-0.71307,-0.71415,-0.83616,-0.82301,-0.6978,-0.69657,-0.69657,-0.69657,-0.69657,-0.6957,-0.6957,-0.6957,-0.6957,-0.6957,-0.6957,-0.6957,-0.6957,-0.6957,-0.6957,-0.6957,-0.6957,-0.6957,-0.6957,-0.69482,-0.69482,-0.69545,-0.69545,-0.69545,-0.69545,-0.69545,-0.69545,-0.69545,-0.69545,-0.69545,-0.69545,-0.69545,-0.69457,-0.69457,-0.69457,-0.69457,-0.69457,-0.69457,-0.69457,-0.69457,-0.69457,-0.69457,-0.69457,-0.69457,-0.69457,-0.6937,-0.6937,-0.6937,-0.6937,-0.6937,-0.6937,-0.6937,-0.6937,-0.6937,-0.6937,-0.6937,-0.69432,-0.69432,-0.69432,-0.69345,-0.69345,-0.69345,-0.69433,-0.69433,-0.69433,-0.69433,-0.69433,-0.69433,-0.69433,-0.69433,-0.69433,-0.69433,-0.69433,-0.69433,-0.69433,-0.69434,-0.69371,-0.69371,-0.69371,-0.69372,-0.69372,-0.69372,-0.69372,-0.69372,-0.69372,-0.69372,-0.69372,-0.69372,-0.69372,-0.69372,-0.69372,-0.69372,-0.69372,-0.69372,-0.69372,-0.69372,-0.69372,-0.69373,-0.69373,-0.69373,-0.69373,-0.69373,-0.69373,-0.69373,-0.69373,-0.69373,-0.69373,-0.69373,-0.69373,-0.69373,-0.69374,-0.69374,-0.69374,-0.69374,-0.69374,-0.69374,-0.69374,-0.69374,-0.69374,-0.69374,-0.69374,-0.69374,-0.69374,-0.69375,-0.69375,-0.69375,-0.69375
-0.70768,-0.70768,-0.70768,-0.70768,-0.70768,-0.70768,-0.70752,-0.70752,-0.70752,-0.70752,-0.70752,-0.70752,-0.70752,-0.70752,-0.70752,-0.70752,-0.70737,-0.70737,-0.70737,-0.70737,-0.70737,-0.70737,-0.70737,-0.70737,-0.70759,-0.70759,-0.70759,-0.70743,-0.70743,-0.70743,-0.70743,-0.70743,-0.70743,-0.70743,-0.70743,-0.70743,-0.70743,-0.70728,-0.70728,-0.70728,-0.70728,-0.70728,-0.70728,-0.70728,-0.70728,-0.70728,-0.70728,-0.70728,-0.70712,-0.70712,-0.70712,-0.70712,-0.70712,-0.70712,-0.70712,-0.70712,-0.70712,-0.70712,-0.70697,-0.70697,-0.70697,-0.70697,-0.70697,-0.70697,-0.70697,-0.70697,-0.70697,-0.70697,-0.70713,-0.70728,-0.70744,-0.70744,-0.70738,-0.70753,-0.70768,-0.70784,-0.70799,-0.70815,-0.70809,-0.70824,-0.7084,-0.7084,-0.70855,-0.70871,-0.70865,-0.7088,-0.70896,-0.70911,-0.70927,-0.70942,-0.70936,-0.70936,-0.70951,-0.70967,-0.70982,-0.70998,-0.70992,-0.71007,-0.71023,-0.71038,-0.71054,-0.71054,-0.71047,-0.71063,-0.71078,-0.71094,-0.71109,-0.71125,-0.7114,-0.71134,-0.71134,-0.71149,-0.71165,-0.7118,-0.71196,-0.71189,-0.71205,-0.7122,-0.71236,-0.71251,-0.71251,-0.71245,-0.7126,-0.71276,-0.71291,-0.71307,-0.71415,-0.83616,-0.82303,-0.6978,-0.69657,-0.69657,-0.69657,-0.69657,-0.6957,-0.6957,-0.6957,-0.6957,-0.6957,-0.6957,-0.6957,-0.6957,-0.6957,-0.6957,-0.6957,-0.6957,-0.6957,-0.6957,-0.69482,-0.69482,-0.69545,-0.69545,-0.69545,-0.69545,-0.69545,-0.69545,-0.69545,-0.69545,-0.69545,-0.69545,-0.69545,-0.69457,-0.69457,-0.69457,-0.69457,-0.69457,-0.69457,-0.69457,-0.69457,-0.69457,-0.69457,-0.69457,-0.69457,-0.69457,-0.69457,-0.6937,-0.6937,-0.6937,-0.6937,-0.6937,-0.6937,-0.6937,-0.6937,-0.6937,-0.6937,-0.69432,-0.69432,-0.69432,-0.69345,-0.69345,-0.69345,-0.69345,-0.69345,-0.69433,-0.69433,-0.69433,-0.69433,-0.69433,-0.69433,-0.69433,-0.69433,-0.69433,-0.69433,-0.69433,-0.69434,-0.69434,-0.69371,-0.69371,-0.69372,-0.69372,-0.69372,-0.69372,-0.69372,-0.69372,-0.69372,-0.69372,-0.69372,-0.69372,-0.69372,-0.69372,-0.69372,-0.69372,-0.69372,-0.69372,-0.69372,-0.69372,-0.69373,-0.69373,-0.69373,-0.69373,-0.69373,-0.69373,-0.69373,-0.69373,-0.69373,-0.69373,-0.69373,-0.69373,-0.69373,-0.69374,-0.69374,-0.69374,-0.69374,-0.69374,-0.69374,-0.69374,-0.69374,-0.69374,-0.69374,-0.69374,-0.69374,-0.69374,-0.69374,-0.69375,-0.69375,-0.69375
-0.70768,-0.70768,-0.70768,-0.70752,-0.70752,-0.70752,-0.70752,-0.70752,-0.70752,-0.70752,-0.70752,-0.70752,-0.70752,-0.70737,-0.70737,-0.70737,-0.70737,-0.70737,-0.70737,-0.70737,-0.70737,-0.70759,-0.70759,-0.70759,-0.70743,-0.70743,-0.70743,-0.70743,-0.70743,-0.70743,-0.70743,-0.70743,-0.70743,-0.70743,-0.70728,-0.70728,-0.70728,-0.70728,-0.70728,-0.70728,-0.70728,-0.70728,-0.70728,-0.70728,-0.70728,-0.70712,-0.70712,-0.70712,-0.70712,-0.70712,-0.70712,-0.70712,-0.70712,-0.70712,-0.70712,-0.70697,-0.70697,-0.70697,-0.70697,-0.70697,-0.70697,-0.70697,-0.70697,-0.70697,-0.70697,-0.70681,-0.70697,-0.70697,-0.70713,-0.70728,-0.70744,-0.70759,-0.70753,-0.70753,-0.70768,-0.70784,-0.70799,-0.70815,-0.70809,-0.70824,-0.7084,-0.70855,-0.70871,-0.70871,-0.70865,-0.7088,-0.70896,-0.70911,-0.70927,-0.70942,-0.70936,-0.70951,-0.70967,-0.70967,-0.70982,-0.70998,-0.70992,-0.71007,-0.71023,-0.71038,-0.71054,-0.71069,-0.71063,-0.71063,-0.71078,-0.71094,-0.71109,-0.71125,-0.71118,-0.71134,-0.71149,-0.71165,-0.71165,-0.7118,-0.71174,-0.71189,-0.71205,-0.7122,-0.71236,-0.71251,-0.71267,-0.7126,-0.7126,-0.71276,-0.71291,-0.71307,-0.71415,-0.83682,-0.82303,-0.6978,-0.69657,-0.69657,-0.69657,-0.69657,-0.69657,-0.6957,-0.6957,-0.6957,-0.6957,-0.6957,-0.6957,-0.6957,-0.6957,-0.6957,-0.6957,-0.6957,-0.6957,-0.6957,-0.69482,-0.69482,-0.69482,-0.69545,-0.69545,-0.69545,-0.69545,-0.69545,-0.69545,-0.69545,-0.69545,-0.69545,-0.69545,-0.69545,-0.69457,-0.69457,-0.69457,-0.69457,-0.69457,-0.69457,-0.69457,-0.69457,-0.69457,-0.69457,-0.69457,-0.69457,-0.69457,-0.6937,-0.6937,-0.6937,-0.6937,-0.6937,-0.6937,-0.6937,-0.6937,-0.6937,-0.6937,-0.69432,-0.69432,-0.69432,-0.69345,-0.69345,-0.69345,-0.69345,-0.69345,-0.69345,-0.69345,-0.69433,-0.69433,-0.69433,-0.69433,-0.69433,-0.69433,-0.69433,-0.69433,-0.69433,-0.69434,-0.69434,-0.69434,-0.69434,-0.69371,-0.69372,-0.69372,-0.69372,-0.69372,-0.69372,-0.69372,-0.69372,-0.69372,-0.69372,-0.69372,-0.69372,-0.69372,-0.69372,-0.69372,-0.69372,-0.69372,-0.69372,-0.69373,-0.69373,-0.69373,-0.69373,-0.69373,-0.69373,-0.69373,-0.69373,-0.69373,-0.69373,-0.69373,-0.69373,-0.69373,-0.69373,-0.69374,-0.69374,-0.69374,-0.69374,-0.69374,-0.69374,-0.69374,-0.69374,-0.69374,-0.69374,-0.69374,-0.69374,-0.69374,-0.69375,-0.69375,-0.69375
-0.70752,-0.70752,-0.70752,-0.70752,-0.70752,-0.70752,-0.70752,-0.70752,-0.70752,-0.70752,-0.70737,-0.70737,-0.70737,-0.70737,-0.70737,-0.70737,-0.70737,-0.70737,-0.70759,-0.70759,-0.70759,-0.70743,-0.70743,-0.70743,-0.70743,-0.70743,-0.70743,-0.70743,-0.70743,-0.70743,-0.70743,-0.70728,-0.70728,-0.70728,-0.70728,-0.70728,-0.70728,-0.70728,-0.70728,-0.70728,-0.70728,-0.70712,-0.70712,-0.70712,-0.70712,-0.70712,-0.70712,-0.70712,-0.70712,-0.70712,-0.70712,-0.70712,-0.70697,-0.70697,-0.70697,-0.70697,-0.70697,-0.70697,-0.70697,-0.70697,-0.70697,-0.70697,-0.70681,-0.70681,-0.70681,-0.70681,-0.70681,-0.70697,-0.70713,-0.70728,-0.70744,-0.70738,-0.70753,-0.70768,-0.70784,-0.70784,-0.70799,-0.70793,-0.70809,-0.70824,-0.7084,-0.70855,-0.70871,-0.70886,-0.7088,-0.7088,-0.70896,-0.70911,-0.70927,-0.70942,-0.70936,-0.70951,-0.70967,-0.70982,-0.70998,-0.70998,-0.70992,-0.71007,-0.71023,-0.71038,-0.71054,-0.71069,-0.71063,-0.71078,-0.71094,-0.71094,-0.71109,-0.71125,-0.71118,-0.71134,-0.71149,-0.71165,-0.7118,-0.71196,-0.71174,-0.71189,-0.71205,-0.7122,-0.71236,-0.71251,-0.71245,-0.7126,-0.71276,-0.71291,-0.71291,-0.71307,-0.7143,-0.83715,-0.82302,-0.6978,-0.69657,-0.69657,-0.69657,-0.69657,-0.69657,-0.6957,-0.6957,-0.6957,-0.6957,-0.6957,-0.6957,-0.6957,-0.6957,-0.6957,-0.6957,-0.6957,-0.6957,-0.6957,-0.69482,-0.69482,-0.69482,-0.69545,-0.69545,-0.69545,-0.69545,-0.69545,-0.69545,-0.69545,-0.69545,-0.69545,-0.69545,-0.69545,-0.69457,-0.69457,-0.69457,-0.69457,-0.69457,-0.69457,-0.69457,-0.69457,-0.69457,-0.69457,-0.69457,-0.69457,-0.69457,-0.6937,-0.6937,-0.6937,-0.6937,-0.6937,-0.6937,-0.6937,-0.6937,-0.6937,-0.6937,-0.6937,-0.69432,-0.69432,-0.69432,-0.69345,-0.69345,-0.69345,-0.69345,-0.69345,-0.69345,-0.69345,-0.69346,-0.69433,-0.69433,-0.69433,-0.69433,-0.69433,-0.69433,-0.69433,-0.69433,-0.69434,-0.69434,-0.69434,-0.69434,-0.69434,-0.69372,-0.69372,-0.69372,-0.69372,-0.69372,-0.69372,-0.69372,-0.69372,-0.69372,-0.69372,-0.69372,-0.69372,-0.69372,-0.69372,-0.69372,-0.69372,-0.69372,-0.69373,-0.69373,-0.69373,-0.69373,-0.69373,-0.69373,-0.69373,-0.69373,-0.69373,-0.69373,-0.69373,-0.69373,-0.69373,-0.69374,-0.69374,-0.69374,-0.69374,-0.69374,-0.69374,-0.69374,-0.69374,-0.69374,-0.69374,-0.69374,-0.69374,-0.69374,-0.69375,-0.69375,-0.69375
-0.70752,-0.70752,-0.70752,-0.70752,-0.70752,-0.70752,-0.70752,-0.70737,-0.70737,-0.70737,-0.70737,-0.70737,-0.70737,-0.70737,-0.70737,-0.70759,-0.70759,-0.70759,-0.70743,-0.70743,-0.70743,-0.70743,-0.70743,-0.70743,-0.70743,-0.70743,-0.70743,-0.70743,-0.70728,-0.70728,-0.70728,-0.70728,-0.70728,-0.70728,-0.70728,-0.70728,-0.70728,-0.70728,-0.70712,-0.70712,-0.70712,-0.70712,-0.70712,-0.70712,-0.70712,-0.70712,-0.70712,-0.70712,-0.70712,-0.70697,-0.70697,-0.70697,-0.70697,-0.70697,-0.70697,-0.70697,-0.70697,-0.70697,-0.70697,-0.70681,-0.70681,-0.70681,-0.70681,-0.70681,-0.70681,-0.70681,-0.70697,-0.70697,-0.70713,-0.70728,-0.70744,-0.70738,-0.70753,-0.70768,-0.70784,-0.70799,-0.70815,-0.70793,-0.70809,-0.70824,-0.7084,-0.70855,-0.70871,-0.70865,-0.7088,-0.70896,-0.70911,-0.70911,-0.70927,-0.70921,-0.70936,-0.70951,-0.70967,-0.70982,-0.70998,-0.71013,-0.71007,-0.71007,-0.71023,-0.71038,-0.71054,-0.71069,-0.71063,-0.71078,-0.71094,-0.71109,-0.71109,-0.71125,-0.71118,-0.71134,-0.71149,-0.71165,-0.7118,-0.71196,-0.71189,-0.71205,-0.71205,-0.7122,-0.71236,-0.71251,-0.71245,-0.7126,-0.71276,-0.71291,-0.71307,-0.71322,-0.7143,-0.83682,-0.82302,-0.6978,-0.69657,-0.69657,-0.69657,-0.69657,-0.69657,-0.6957,-0.6957,-0.6957,-0.6957,-0.6957,-0.6957,-0.6957,-0.6957,-0.6957,-0.6957,-0.6957,-0.6957,-0.6957,-0.6957,-0.69482,-0.69482,-0.69545,-0.69545,-0.69545,-0.69545,-0.69545,-0.69545,-0.69545,-0.69545,-0.69545,-0.69545,-0.69545,-0.69457,-0.69457,-0.69457,-0.69457,-0.69457,-0.69457,-0.69457,-0.69457,-0.69457,-0.69457,-0.69457,-0.69457,-0.69457,-0.6937,-0.6937,-0.6937,-0.6937,-0.6937,-0.6937,-0.6937,-0.6937,-0.6937,-0.6937,-0.6937,-0.69432,-0.69432,-0.69432,-0.69345,-0.69345,-0.69345,-0.69345,-0.69345,-0.69345,-0.69345,-0.69346,-0.69346,-0.69346,-0.69346,-0.69433,-0.69433,-0.69433,-0.69433,-0.69433,-0.69434,-0.69434,-0.69434,-0.69434,-0.69434,-0.69434,-0.69372,-0.69372,-0.69372,-0.69372,-0.69372,-0.69372,-0.69372,-0.69372,-0.69372,-0.69372,-0.69372,-0.69372,-0.69372,-0.69372,-0.69372,-0.69372,-0.69373,-0.69373,-0.69373,-0.69373,-0.69373,-0.69373,-0.69373,-0.69373,-0.69373,-0.69373,-0.69373,-0.69373,-0.69373,-0.69373,-0.69374,-0.69374,-0.69374,-0.69374,-0.69374,-0.69374,-0.69374,-0.69374,-0.69374,-0.69374,-0.69374,-0.69374,-0.69374,-0.69375,-0.69375
-0.70752,-0.70752,-0.70752,-0.70752,-0.70737,-0.70737,-0.70737,-0.70737,-0.70737,-0.70737,-0.70737,-0.70737,-0.70759,-0.70759,-0.70759,-0.70743,-0.70743,-0.70743,-0.70743,-0.70743,-0.70743,-0.70743,-0.70743,-0.70743,-0.70743,-0.70728,-0.70728,-0.70728,-0.70728,-0.70728,-0.70728,-0.70728,-0.70728,-0.70728,-0.70728,-0.70712,-0.70712,-0.70712,-0.70712,-0.70712,-0.70712,-0.70712,-0.70712,-0.70712,-0.70712,-0.70712,-0.70697,-0.70697,-0.70697,-0.70697,-0.70697,-0.70697,-0.70697,-0.70697,-0.70697,-0.70697,-0.70681,-0.70681,-0.70681,-0.70681,-0.70681,-0.70681,-0.70681,-0.70681,-0.70681,-0.70681,-0.70697,-0.70712,-0.70728,-0.70728,-0.70744,-0.70738,-0.70753,-0.70768,-0.70784,-0.70799,-0.70815,-0.70809,-0.70824,-0.70824,-0.7084,-0.70855,-0.70871,-0.70865,-0.7088,-0.70896,-0.70911,-0.70927,-0.70942,-0.70921,-0.70936,-0.70951,-0.70967,-0.70982,-0.70998,-0.70992,-0.71007,-0.71023,-0.71038,-0.71038,-0.71054,-0.71069,-0.71063,-0.71078,-0.71094,-0.71109,-0.71125,-0.7114,-0.71118,-0.71134,-0.71149,-0.71165,-0.7118,-0.71196,-0.71189,-0.71205,-0.7122,-0.71236,-0.71236,-0.71251,-0.71245,-0.7126,-0.71276,-0.71291,-0.71307,-0.71322,-0.71408,-0.83715,-0.82302,-0.69718,-0.69657,-0.69657,-0.69657,-0.69657,-0.69657,-0.6957,-0.6957,-0.6957,-0.6957,-0.6957,-0.6957,-0.6957,-0.6957,-0.6957,-0.6957,-0.6957,-0.6957,-0.6957,-0.6957,-0.69482,-0.69482,-0.69545,-0.69545,-0.69545,-0.69545,-0.69545,-0.69545,-0.69545,-0.69545,-0.69545,-0.69545,-0.69545,-0.69458,-0.69458,-0.69458,-0.69457,-0.69457,-0.69457,-0.69457,-0.69457,-0.69457,-0.69457,-0.69457,-0.69457,-0.69457,-0.69457,-0.6937,-0.6937,-0.6937,-0.6937,-0.6937,-0.6937,-0.6937,-0.6937,-0.6937,-0.6937,-0.69432,-0.69432,-0.69432,-0.69345,-0.69345,-0.69345,-0.69345,-0.69345,-0.69345,-0.69345,-0.69345,-0.69346,-0.69346,-0.69346,-0.69346,-0.69346,-0.69433,-0.69433,-0.69433,-0.69434,-0.69434,-0.69434,-0.69434,-0.69434,-0.69434,-0.69434,-0.69434,-0.69434,-0.69372,-0.69372,-0.69372,-0.69372,-0.69372,-0.69372,-0.69372,-0.69372,-0.69372,-0.69372,-0.69372,-0.69372,-0.69372,-0.69372,-0.69373,-0.69373,-0.69373,-0.69373,-0.69373,-0.69373,-0.69373,-0.69373,-0.69373,-0.69373,-0.69373,-0.69373,-0.69373,-0.69374,-0.69374,-0.69374,-0.69374,-0.69374,-0.69374,-0.69374,-0.69374,-0.69374,-0.69374,-0.69374,-0.69374,-0.69374,-0.69375,-0.69375
-0.70752,-0.70736,-0.70736,-0.70736,-0.70736,-0.70737,-0.70737,-0.70737,-0.70737,-0.70759,-0.70759,-0.70743,-0.70743,-0.70743,-0.70743,-0.70743,-0.70743,-0.70743,-0.70743,-0.70743,-0.70743,-0.70743,-0.70728,-0.70728,-0.70728,-0.70728,-0.70728,-0.70728,-0.70728,-0.70728,-0.70728,-0.70728,-0.70712,-0.70712,-0.70712,-0.70712,-0.70712,-0.70712,-0.70712,-0.70712,-0.70712,-0.70712,-0.70712,-0.70697,-0.70697,-0.70697,-0.70697,-0.70697,-0.70697,-0.70697,-0.70697,-0.70697,-0.70697,-0.70681,-0.70681,-0.70681,-0.70681,-0.70681,-0.70681,-0.70681,-0.70681,-0.70681,-0.70681,-0.70666,-0.70681,-0.70681,-0.70697,-0.70712,-0.70728,-0.70744,-0.70759,-0.70738,-0.70753,-0.70768,-0.70784,-0.70799,-0.70815,-0.70809,-0.70824,-0.7084,-0.70855,-0.70855,-0.70871,-0.70865,-0.7088,-0.70896,-0.70911,-0.70927,-0.70942,-0.70936,-0.70951,-0.70951,-0.70967,-0.70982,-0.70998,-0.70992,-0.71007,-0.71023,-0.71038,-0.71053,-0.71069,-0.71047,-0.71063,-0.71078,-0.71094,-0.71109,-0.71125,-0.71118,-0.71134,-0.71149,-0.71149,-0.71165,-0.7118,-0.71196,-0.71189,-0.71205,-0.7122,-0.71236,-0.71251,-0.71267,-0.71245,-0.7126,-0.71276,-0.71291,-0.71307,-0.71322,-0.71408,-0.83649,-0.82303,-0.69718,-0.69657,-0.69657,-0.69657,-0.69657,-0.69657,-0.69657,-0.6957,-0.6957,-0.6957,-0.6957,-0.6957,-0.6957,-0.6957,-0.6957,-0.6957,-0.6957,-0.6957,-0.6957,-0.6957,-0.69482,-0.69482,-0.69482,-0.69545,-0.69545,-0.69545,-0.69545,-0.69545,-0.69545,-0.69545,-0.69545,-0.69545,-0.69545,-0.69458,-0.69458,-0.69458,-0.69458,-0.69458,-0.69457,-0.69457,-0.69457,-0.69457,-0.69457,-0.69457,-0.69457,-0.69457,-0.69457,-0.6937,-0.6937,-0.6937,-0.6937,-0.6937,-0.6937,-0.6937,-0.6937,-0.6937,-0.6937,-0.69432,-0.69432,-0.69432,-0.69345,-0.69345,-0.69345,-0.69345,-0.69345,-0.69345,-0.69345,-0.69345,-0.69346,-0.69346,-0.69346,-0.69346,-0.69346,-0.69346,-0.69346,-0.69433,-0.69433,-0.69434,-0.69434,-0.69434,-0.69434,-0.69434,-0.69434,-0.69434,-0.69434,-0.69434,-0.69372,-0.69372,-0.69372,-0.69372,-0.69372,-0.69372,-0.69372,-0.69372,-0.69372,-0.69372,-0.69372,-0.69372,-0.69372,-0.69373,-0.69373,-0.69373,-0.69373,-0.69373,-0.69373,-0.69373,-0.69373,-0.69373,-0.69373,-0.69373,-0.69373,-0.69373,-0.69374,-0.69374,-0.69374,-0.69374,-0.69374,-0.69374,-0.69374,-0.69374,-0.69374,-0.69374,-0.69374,-0.69374,-0.69374,-0.69374,-0.69375
-0.70736,-0.70736,-0.70736,-0.70736,-0.70736,-0.70758,-0.70758,-0.70759,-0.70743,-0.70743,-0.70743,-0.70743,-0.70743,-0.70743,-0.70743,-0.70743,-0.70743,-0.70743,-0.70743,-0.70728,-0.70728,-0.70728,-0.70728,-0.70728,-0.70728,-0.70728,-0.70728,-0.70728,-0.70728,-0.70712,-0.70712,-0.70712,-0.70712,-0.70712,-0.70712,-0.70712,-0.70712,-0.70712,-0.70712,-0.70712,-0.70697,-0.70697,-0.70697,-0.70697,-0.70697,-0.70697,-0.70697,-0.70697,-0.70697,-0.70697,-0.70681,-0.70681,-0.70681,-0.70681,-0.70681,-0.70681,-0.70681,-0.70681,-0.70681,-0.70681,-0.70666,-0.70666,-0.70666,-0.70687,-0.70666,-0.70681,-0.70697,-0.70712,-0.70728,-0.70744,-0.70738,-0.70753,-0.70768,-0.70768,-0.70784,-0.70799,-0.70815,-0.70809,-0.70824,-0.7084,-0.70855,-0.70871,-0.70886,-0.70865,-0.7088,-0.70896,-0.70911,-0.70927,-0.70942,-0.70936,-0.70951,-0.70967,-0.70982,-0.70982,-0.70998,-0.70992,-0.71007,-0.71023,-0.71038,-0.71053,-0.71069,-0.71063,-0.71078,-0.71078,-0.71094,-0.71109,-0.71125,-0.71118,-0.71134,-0.71149,-0.71165,-0.7118,-0.7118,-0.71174,-0.71189,-0.71205,-0.7122,-0.71236,-0.71251,-0.71245,-0.7126,-0.71276,-0.71276,-0.71291,-0.71307,-0.71322,-0.71408,-0.83682,-0.82232,-0.69718,-0.69657,-0.69657,-0.69657,-0.69657,-0.69657,-0.69657,-0.6957,-0.6957,-0.6957,-0.6957,-0.6957,-0.6957,-0.6957,-0.6957,-0.6957,-0.6957,-0.6957,-0.6957,-0.6957,-0.69482,-0.69482,-0.69482,-0.69545,-0.69545,-0.69545,-0.69545,-0.69545,-0.69545,-0.69545,-0.69545,-0.69545,-0.69545,-0.69545,-0.69458,-0.69458,-0.69458,-0.69458,-0.69458,-0.69458,-0.69458,-0.69457,-0.69457,-0.69457,-0.69457,-0.69457,-0.69457,-0.6937,-0.6937,-0.6937,-0.6937,-0.6937,-0.6937,-0.6937,-0.6937,-0.6937,-0.6937,-0.6937,-0.69432,-0.69432,-0.69345,-0.69345,-0.69345,-0.69345,-0.69345,-0.69345,-0.69345,-0.69345,-0.69346,-0.69346,-0.69346,-0.69346,-0.69346,-0.69346,-0.69346,-0.69346,-0.69346,-0.69434,-0.69434,-0.69434,-0.69434,-0.69434,-0.69434,-0.69434,-0.69434,-0.69434,-0.69434,-0.69434,-0.69372,-0.69372,-0.69372,-0.69372,-0.69372,-0.69372,-0.69372,-0.69372,-0.69372,-0.69372,-0.69372,-0.69373,-0.69373,-0.69373,-0.69373,-0.69373,-0.69373,-0.69373,-0.69373,-0.69373,-0.69373,-0.69373,-0.69373,-0.69373,-0.69373,-0.69374,-0.69374,-0.69374,-0.69374,-0.69374,-0.69374,-0.69374,-0.69374,-0.69374,-0.69374,-0.69374,-0.69374,-0.69374,-0.69375
-0.70736,-0.70736,-0.70758,-0.70758,-0.70758,-0.70743,-0.70743,-0.70743,-0.70743,-0.70743,-0.70743,-0.70743,-0.70743,-0.70743,-0.70743,-0.70743,-0.70728,-0.70728,-0.70728,-0.70728,-0.70728,-0.70728,-0.70728,-0.70728,-0.70728,-0.70728,-0.70712,-0.70712,-0.70712,-0.70712,-0.70712,-0.70712,-0.70712,-0.70712,-0.70712,-0.70712,-0.70697,-0.70697,-0.70697,-0.70697,-0.70697,-0.70697,-0.70697,-0.70697,-0.70697,-0.70697,-0.70697,-0.70681,-0.70681,-0.70681,-0.70681,-0.70681,-0.70681,-0.70681,-0.70681,-0.70681,-0.70681,-0.70666,-0.70666,-0.70666,-0.70687,-0.70687,-0.70687,-0.70687,-0.70681,-0.70681,-0.70697,-0.70712,-0.70728,-0.70744,-0.70738,-0.70753,-0.70768,-0.70784,-0.70799,-0.70799,-0.70793,-0.70809,-0.70824,-0.7084,-0.70855,-0.70871,-0.70865,-0.7088,-0.70896,-0.70896,-0.70911,-0.70927,-0.70942,-0.70936,-0.70951,-0.70967,-0.70982,-0.70998,-0.71013,-0.70992,-0.71007,-0.71023,-0.71038,-0.71053,-0.71069,-0.71063,-0.71078,-0.71094,-0.71109,-0.71109,-0.71125,-0.71118,-0.71134,-0.71149,-0.71165,-0.7118,-0.71196,-0.71189,-0.71189,-0.71205,-0.7122,-0.71236,-0.71251,-0.71245,-0.7126,-0.71276,-0.71291,-0.71307,-0.71307,-0.713,-0.71424,-0.83682,-0.82385,-0.69718,-0.69657,-0.69657,-0.69657,-0.69657,-0.69657,-0.69657,-0.6957,-0.6957,-0.6957,-0.6957,-0.6957,-0.6957,-0.6957,-0.6957,-0.6957,-0.6957,-0.6957,-0.6957,-0.6957,-0.6957,-0.69482,-0.69482,-0.69545,-0.69545,-0.69545,-0.69545,-0.69545,-0.69545,-0.69545,-0.69545,-0.69545,-0.69545,-0.69545,-0.69458,-0.69458,-0.69458,-0.69458,-0.69458,-0.69458,-0.69458,-0.69458,-0.69458,-0.69458,-0.69457,-0.69457,-0.69457,-0.6937,-0.6937,-0.6937,-0.6937,-0.6937,-0.6937,-0.6937,-0.6937,-0.6937,-0.6937,-0.6937,-0.69432,-0.69432,-0.69432,-0.69345,-0.69345,-0.69345,-0.69345,-0.69345,-0.69345,-0.69345,-0.69345,-0.69346,-0.69346,-0.69346,-0.69346,-0.69346,-0.69346,-0.69346,-0.69346,-0.69346,-0.69346,-0.69346,-0.69434,-0.69434,-0.69434,-0.69434,-0.69434,-0.69434,-0.69434,-0.69434,-0.69434,-0.69434,-0.69372,-0.69372,-0.69372,-0.69372,-0.69372,-0.69372,-0.69372,-0.69372,-0.69372,-0.69372,-0.69373,-0.69373,-0.69373,-0.69373,-0.69373,-0.69373,-0.69373,-0.69373,-0.69373,-0.69373,-0.69373,-0.69373,-0.69373,-0.69374,-0.69374,-0.69374,-0.69374,-0.69374,-0.69374,-0.69374,-0.69374,-0.69374,-0.69374,-0.69374,-0.69374,-0.69374,-0.69375
-0.70758,-0.70758,-0.70743,-0.70743,-0.70743,-0.70743,-0.70743,-0.70743,-0.70743,-0.70743,-0.70743,-0.70743,-0.70743,-0.70728,-0.70728,-0.70728,-0.70728,-0.70728,-0.70728,-0.70728,-0.70728,-0.70728,-0.70728,-0.70712,-0.70712,-0.70712,-0.70712,-0.70712,-0.70712,-0.70712,-0.70712,-0.70712,-0.70712,-0.70697,-0.70697,-0.70697,-0.70697,-0.70697,-0.70697,-0.70697,-0.70697,-0.70697,-0.70697,-0.70697,-0.70681,-0.70681,-0.70681,-0.70681,-0.70681,-0.70681,-0.70681,-0.70681,-0.70681,-0.70681,-0.70666,-0.70666,-0.70666,-0.70687,-0.70687,-0.70687,-0.70687,-0.70687,-0.70687,-0.70687,-0.70681,-0.70697,-0.70712,-0.70712,-0.70728,-0.70744,-0.70738,-0.70753,-0.70768,-0.70784,-0.70799,-0.70815,-0.70809,-0.70809,-0.70824,-0.7084,-0.70855,-0.70871,-0.70865,-0.7088,-0.70896,-0.70911,-0.70927,-0.70927,-0.7092,-0.70936,-0.70951,-0.70967,-0.70982,-0.70998,-0.71013,-0.71007,-0.71023,-0.71023,-0.71038,-0.71053,-0.71069,-0.71063,-0.71078,-0.71094,-0.71109,-0.71125,-0.71125,-0.71118,-0.71134,-0.71149,-0.71165,-0.7118,-0.71196,-0.71189,-0.71205,-0.7122,-0.7122,-0.71236,-0.71251,-0.71245,-0.7126,-0.71276,-0.71291,-0.71307,-0.71322,-0.71316,-0.71424,-0.83682,-0.82387,-0.69718,-0.69657,-0.69657,-0.69657,-0.69657,-0.69657,-0.69657,-0.6957,-0.6957,-0.6957,-0.6957,-0.6957,-0.6957,-0.6957,-0.6957,-0.6957,-0.6957,-0.6957,-0.6957,-0.6957,-0.6957,-0.69482,-0.69482,-0.69545,-0.69545,-0.69545,-0.69545,-0.69545,-0.69545,-0.69545,-0.69545,-0.69545,-0.69545,-0.69545,-0.69458,-0.69458,-0.69458,-0.69458,-0.69458,-0.69458,-0.69458,-0.69458,-0.69458,-0.69458,-0.69458,-0.69458,-0.69457,-0.69457,-0.6937,-0.6937,-0.6937,-0.6937,-0.6937,-0.6937,-0.6937,-0.6937,-0.6937,-0.6937,-0.69432,-0.69432,-0.69432,-0.69345,-0.69345,-0.69345,-0.69345,-0.69345,-0.69345,-0.69345,-0.69345,-0.69346,-0.69346,-0.69346,-0.69346,-0.69346,-0.69346,-0.69346,-0.69346,-0.69346,-0.69346,-0.69346,-0.69346,-0.69346,-0.69434,-0.69434,-0.69434,-0.69434,-0.69434,-0.69434,-0.69434,-0.69434,-0.69434,-0.69435,-0.69372,-0.69372,-0.69372,-0.69372,-0.69372,-0.69372,-0.69372,-0.69372,-0.69373,-0.69373,-0.69373,-0.69373,-0.69373,-0.69373,-0.69373,-0.69373,-0.69373,-0.69373,-0.69373,-0.69373,-0.69373,-0.69374,-0.69374,-0.69374,-0.69374,-0.69374,-0.69374,-0.69374,-0.69374,-0.69374,-0.69374,-0.69374,-0.69374,-0.69374,-0.69374
-0.70743,-0.70743,-0.70743,-0.70743,-0.70743,-0.70743,-0.70743,-0.70743,-0.70743,-0.70727,-0.70727,-0.70727,-0.70727,-0.70728,-0.70728,-0.70728,-0.70728,-0.70728,-0.70728,-0.70728,-0.70712,-0.70712,-0.70712,-0.70712,-0.70712,-0.70712,-0.70712,-0.70712,-0.70712,-0.70712,-0.70697,-0.70697,-0.70697,-0.70697,-0.70697,-0.70697,-0.70697,-0.70697,-0.70697,-0.70697,-0.70697,-0.70681,-0.70681,-0.70681,-0.70681,-0.70681,-0.70681,-0.70681,-0.70681,-0.70681,-0.70681,-0.70666,-0.70666,-0.70687,-0.70687,-0.70687,-0.70687,-0.70687,-0.70687,-0.70687,-0.70687,-0.70672,-0.70687,-0.70687,-0.70681,-0.70697,-0.70712,-0.70728,-0.70743,-0.70744,-0.70738,-0.70753,-0.70768,-0.70784,-0.70799,-0.70815,-0.70809,-0.70824,-0.7084,-0.7084,-0.70855,-0.70871,-0.70865,-0.7088,-0.70896,-0.70911,-0.70927,-0.70942,-0.70936,-0.70936,-0.70951,-0.70967,-0.70982,-0.70998,-0.70992,-0.71007,-0.71023,-0.71038,-0.71053,-0.71053,-0.71047,-0.71063,-0.71078,-0.71094,-0.71109,-0.71125,-0.7114,-0.71134,-0.71134,-0.71149,-0.71165,-0.7118,-0.71196,-0.71189,-0.71205,-0.7122,-0.71236,-0.71251,-0.71251,-0.71245,-0.7126,-0.71276,-0.71291,-0.71307,-0.71322,-0.71316,-0.71424,-0.83582,-0.82524,-0.6978,-0.69657,-0.69657,-0.69657,-0.69657,-0.69657,-0.69657,-0.69657,-0.6957,-0.6957,-0.6957,-0.6957,-0.6957,-0.6957,-0.6957,-0.6957,-0.6957,-0.6957,-0.6957,-0.6957,-0.6957,-0.69482,-0.69482,-0.69482,-0.69545,-0.69545,-0.69545,-0.69545,-0.69545,-0.69545,-0.69545,-0.69545,-0.69545,-0.69545,-0.69458,-0.69458,-0.69458,-0.69458,-0.69458,-0.69458,-0.69458,-0.69458,-0.69458,-0.69458,-0.69458,-0.69458,-0.69458,-0.69458,-0.6937,-0.6937,-0.6937,-0.6937,-0.6937,-0.6937,-0.6937,-0.6937,-0.6937,-0.6937,-0.69432,-0.69432,-0.69432,-0.69345,-0.69345,-0.69345,-0.69345,-0.69345,-0.69345,-0.69345,-0.69345,-0.69346,-0.69346,-0.69346,-0.69346,-0.69346,-0.69346,-0.69346,-0.69346,-0.69346,-0.69346,-0.69346,-0.69346,-0.69346,-0.69346,-0.69347,-0.69434,-0.69434,-0.69434,-0.69434,-0.69434,-0.69434,-0.69434,-0.69434,-0.69435,-0.69435,-0.69372,-0.69372,-0.69372,-0.69372,-0.69372,-0.69372,-0.69372,-0.69373,-0.69373,-0.69373,-0.69373,-0.69373,-0.69373,-0.69373,-0.69373,-0.69373,-0.69373,-0.69373,-0.69373,-0.69373,-0.69374,-0.69374,-0.69374,-0.69374,-0.69374,-0.69374,-0.69374,-0.69374,-0.69374,-0.69374,-0.69374,-0.69374,-0.69374
-0.70743,-0.70743,-0.70743,-0.70743,-0.70743,-0.70743,-0.70727,-0.70727,-0.70727,-0.70727,-0.70727,-0.70727,-0.70727,-0.70727,-0.70727,-0.70727,-0.70728,-0.70712,-0.70712,-0.70712,-0.70712,-0.70712,-0.70712,-0.70712,-0.70712,-0.70712,-0.70712,-0.70697,-0.70697,-0.70697,-0.70697,-0.70697,-0.70697,-0.70697,-0.70697,-0.70697,-0.70697,-0.70697,-0.70681,-0.70681,-0.70681,-0.70681,-0.70681,-0.70681,-0.70681,-0.70681,-0.70681,-0.70681,-0.70666,-0.70666,-0.70666,-0.70687,-0.70687,-0.70687,-0.70687,-0.70687,-0.70687,-0.70687,-0.70672,-0.70672,-0.70672,-0.70672,-0.70672,-0.70687,-0.70681,-0.70697,-0.70712,-0.70728,-0.70743,-0.70759,-0.70753,-0.70753,-0.70768,-0.70784,-0.70799,-0.70815,-0.70809,-0.70824,-0.7084,-0.70855,-0.70871,-0.70871,-0.70865,-0.7088,-0.70896,-0.70911,-0.70927,-0.70942,-0.70936,-0.70951,-0.70967,-0.70967,-0.70982,-0.70998,-0.70992,-0.71007,-0.71023,-0.71038,-0.71053,-0.71069,-0.71063,-0.71063,-0.71078,-0.71094,-0.71109,-0.71125,-0.71118,-0.71134,-0.71149,-0.71165,-0.71165,-0.7118,-0.71174,-0.71189,-0.71205,-0.7122,-0.71236,-0.71251,-0.71267,-0.7126,-0.7126,-0.71276,-0.71291,-0.71307,-0.71322,-0.71316,-0.71424,-0.83649,-0.82387,-0.69718,-0.69657,-0.69657,-0.69657,-0.69657,-0.69657,-0.69657,-0.69657,-0.6957,-0.6957,-0.6957,-0.6957,-0.6957,-0.6957,-0.6957,-0.6957,-0.6957,-0.6957,-0.6957,-0.6957,-0.6957,-0.69482,-0.69482,-0.69482,-0.69545,-0.69545,-0.69545,-0.69545,-0.69545,-0.69545,-0.69545,-0.69545,-0.69545,-0.69545,-0.69545,-0.69458,-0.69458,-0.69458,-0.69458,-0.69458,-0.69458,-0.69458,-0.69458,-0.69458,-0.69458,-0.69458,-0.69458,-0.69458,-0.6937,-0.6937,-0.6937,-0.6937,-0.6937,-0.6937,-0.6937,-0.6937,-0.6937,-0.6937,-0.6937,-0.69432,-0.69432,-0.69345,-0.69345,-0.69345,-0.69345,-0.69345,-0.69345,-0.69345,-0.69345,-0.69345,-0.69346,-0.69346,-0.69346,-0.69346,-0.69346,-0.69346,-0.69346,-0.69346,-0.69346,-0.69346,-0.69346,-0.69346,-0.69346,-0.69347,-0.69347,-0.69347,-0.69434,-0.69434,-0.69434,-0.69434,-0.69434,-0.69434,-0.69435,-0.69435,-0.69435,-0.69372,-0.69372,-0.69372,-0.69372,-0.69372,-0.69372,-0.69373,-0.69373,-0.69373,-0.69373,-0.69373,-0.69373,-0.69373,-0.69373,-0.69373,-0.69373,-0.69373,-0.69373,-0.69373,-0.69374,-0.69374,-0.69374,-0.69374,-0.69374,-0.69374,-0.69374,-0.69374,-0.69374,-0.69374,-0.69374,-0.69374,-0.69374
-0.70743,-0.70743,-0.70743,-0.70727,-0.70727,-0.70727,-0.70727,-0.70727,-0.70727,-0.70727,-0.70727,-0.70727,-0.70727,-0.70727,-0.70712,-0.70712,-0.70712,-0.70712,-0.70712,-0.70712,-0.70712,-0.70712,-0.70712,-0.70712,-0.70697,-0.70697,-0.70697,-0.70697,-0.70697,-0.70697,-0.70697,-0.70697,-0.70697,-0.70697,-0.70681,-0.70681,-0.70681,-0.70681,-0.70681,-0.70681,-0.70681,-0.70681,-0.70681,-0.70681,-0.70681,-0.70666,-0.70666,-0.70687,-0.70687,-0.70687,-0.70687,-0.70687,-0.70687,-0.70687,-0.70687,-0.70672,-0.70672,-0.70672,-0.70672,-0.70672,-0.70672,-0.70672,-0.70687,-0.70666,-0.70681,-0.70697,-0.70712,-0.70728,-0.70743,-0.70737,-0.70753,-0.70768,-0.70784,-0.70784,-0.70799,-0.70793,-0.70809,-0.70824,-0.7084,-0.70855,-0.70871,-0.70886,-0.7088,-0.7088,-0.70896,-0.70911,-0.70927,-0.70942,-0.70936,-0.70951,-0.70967,-0.70982,-0.70998,-0.70998,-0.70992,-0.71007,-0.71023,-0.71038,-0.71053,-0.71069,-0.71063,-0.71078,-0.71094,-0.71094,-0.71109,-0.71125,-0.71118,-0.71134,-0.71149,-0.71165,-0.7118,-0.71196,-0.71174,-0.71189,-0.71205,-0.7122,-0.71236,-0.71251,-0.71245,-0.7126,-0.71276,-0.71291,-0.71291,-0.71307,-0.71322,-0.71316,-0.71439,-0.83681,-0.82318,-0.69718,-0.69657,-0.69657,-0.69657,-0.69657,-0.69657,-0.69657,-0.69657,-0.6957,-0.6957,-0.6957,-0.6957,-0.6957,-0.6957,-0.6957,-0.6957,-0.6957,-0.6957,-0.6957,-0.6957,-0.6957,-0.69482,-0.69482,-0.69482,-0.69545,-0.69545,-0.69545,-0.69545,-0.69545,-0.69545,-0.69545,-0.69545,-0.69545,-0.69545,-0.69545,-0.69458,-0.69458,-0.69458,-0.69458,-0.69458,-0.69458,-0.69458,-0.69458,-0.69458,-0.69458,-0.69458,-0.69458,-0.69458,-0.6937,-0.6937,-0.6937,-0.6937,-0.6937,-0.6937,-0.6937,-0.6937,-0.6937,-0.6937,-0.6937,-0.69432,-0.69432,-0.69432,-0.69345,-0.69345,-0.69345,-0.69345,-0.69345,-0.69345,-0.69345,-0.69345,-0.69346,-0.69346,-0.69346,-0.69346,-0.69346,-0.69346,-0.69346,-0.69346,-0.69346,-0.69346,-0.69346,-0.69346,-0.69346,-0.69346,-0.69347,-0.69347,-0.69347,-0.69347,-0.69347,-0.69434,-0.69434,-0.69434,-0.69435,-0.69435,-0.69435,-0.69435,-0.69435,-0.69372,-0.69372,-0.69372,-0.69372,-0.69373,-0.69373,-0.69373,-0.69373,-0.69373,-0.69373,-0.69373,-0.69373,-0.69373,-0.69373,-0.69373,-0.69373,-0.69373,-0.69373,-0.69374,-0.69374,-0.69374,-0.69374,-0.69374,-0.69374,-0.69374,-0.69374,-0.69374,-0.69374,-0.69374,-0.69374
-0.70727,-0.70727,-0.70727,-0.70727,-0.70727,-0.70727,-0.70727,-0.70727,-0.70727,-0.70727,-0.70727,-0.70712,-0.70712,-0.70712,-0.70712,-0.70712,-0.70712,-0.70712,-0.70712,-0.70712,-0.70712,-0.70697,-0.70697,-0.70697,-0.70697,-0.70697,-0.70697,-0.70697,-0.70697,-0.70697,-0.70697,-0.70681,-0.70681,-0.70681,-0.70681,-0.70681,-0.70681,-0.70681,-0.70681,-0.70681,-0.70681,-0.70681,-0.70666,-0.70666,-0.70687,-0.70687,-0.70687,-0.70687,-0.70687,-0.70687,-0.70687,-0.70687,-0.70672,-0.70672,-0.70672,-0.70672,-0.70672,-0.70672,-0.70672,-0.70672,-0.70672,-0.70672,-0.70687,-0.70681,-0.70697,-0.70697,-0.70712,-0.70728,-0.70743,-0.70737,-0.70753,-0.70768,-0.70784,-0.70799,-0.70815,-0.70793,-0.70809,-0.70824,-0.7084,-0.70855,-0.70871,-0.70865,-0.7088,-0.70896,-0.70911,-0.70911,-0.70927,-0.7092,-0.70936,-0.70951,-0.70967,-0.70982,-0.70998,-0.71013,-0.71007,-0.71007,-0.71023,-0.71038,-0.71053,-0.71069,-0.71063,-0.71078,-0.71094,-0.71109,-0.71125,-0.71125,-0.71118,-0.71134,-0.71149,-0.71165,-0.7118,-0.71196,-0.71189,-0.71205,-0.71205,-0.7122,-0.71236,-0.71251,-0.71245,-0.7126,-0.71276,-0.71291,-0.71307,-0.71322,-0.713,-0.71316,-0.71439,-0.83681,-0.82386,-0.69718,-0.69657,-0.69657,-0.69657,-0.69657,-0.69657,-0.69657,-0.69657,-0.6957,-0.6957,-0.6957,-0.6957,-0.6957,-0.6957,-0.6957,-0.6957,-0.6957,-0.6957,-0.6957,-0.6957,-0.6957,-0.6957,-0.69482,-0.69482,-0.69545,-0.69545,-0.69545,-0.69545,-0.69545,-0.69545,-0.69545,-0.69545,-0.69545,-0.69545,-0.69545,-0.69458,-0.69458,-0.69458,-0.69458,-0.69458,-0.69458,-0.69458,-0.69458,-0.69458,-0.69458,-0.69458,-0.69458,-0.69458,-0.69458,-0.6937,-0.6937,-0.6937,-0.6937,-0.6937,-0.6937,-0.6937,-0.6937,-0.6937,-0.6937,-0.69432,-0.69432,-0.69432,-0.69345,-0.69345,-0.69345,-0.69345,-0.69345,-0.69345,-0.69345,-0.69345,-0.69345,-0.69346,-0.69346,-0.69346,-0.69346,-0.69346,-0.69346,-0.69346,-0.69346,-0.69346,-0.69346,-0.69346,-0.69346,-0.69346,-0.69347,-0.69347,-0.69347,-0.69347,-0.69347,-0.69347,-0.69347,-0.69434,-0.69434,-0.69435,-0.69435,-0.69435,-0.69435,-0.69435,-0.69435,-0.69372,-0.69372,-0.69372,-0.69373,-0.69373,-0.69373,-0.69373,-0.69373,-0.69373,-0.69373,-0.69373,-0.69373,-0.69373,-0.69373,-0.69373,-0.69373,-0.69374,-0.69374,-0.69374,-0.69374,-0.69374,-0.69374,-0.69374,-0.69374,-0.69374,-0.69374,-0.69374,-0.69374
-0.70727,-0.70727,-0.70727,-0.70727,-0.70727,-0.70727,-0.70727,-0.70712,-0.70712,-0.70712,-0.70712,-0.70712,-0.70712,-0.70712,-0.70712,-0.70712,-0.70712,-0.70712,-0.70696,-0.70696,-0.70696,-0.70696,-0.70697,-0.70697,-0.70697,-0.70697,-0.70697,-0.70697,-0.70681,-0.70681,-0.70681,-0.70681,-0.70681,-0.70681,-0.70681,-0.70681,-0.70681,-0.70681,-0.70681,-0.70666,-0.70666,-0.70687,-0.70687,-0.70687,-0.70687,-0.70687,-0.70687,-0.70687,-0.70687,-0.70672,-0.70672,-0.70672,-0.70672,-0.70672,-0.70672,-0.70672,-0.70672,-0.70672,-0.70672,-0.70656,-0.70672,-0.70672,-0.70687,-0.70681,-0.70697,-0.70712,-0.70728,-0.70728,-0.70743,-0.70737,-0.70753,-0.70768,-0.70784,-0.70799,-0.70815,-0.70809,-0.70824,-0.70824,-0.7084,-0.70855,-0.70871,-0.70865,-0.7088,-0.70896,-0.70911,-0.70927,-0.70942,-0.7092,-0.70936,-0.70951,-0.70967,-0.70982,-0.70998,-0.70992,-0.71007,-0.71023,-0.71038,-0.71038,-0.71053,-0.71069,-0.71063,-0.71078,-0.71094,-0.71109,-0.71125,-0.7114,-0.71118,-0.71134,-0.71149,-0.71165,-0.7118,-0.71196,-0.71189,-0.71205,-0.7122,-0.71236,-0.71236,-0.71251,-0.71245,-0.7126,-0.71276,-0.71291,-0.71307,-0.71322,-0.71316,-0.71331,-0.71439,-0.83648,-0.82387,-0.69718,-0.69657,-0.69657,-0.69657,-0.69657,-0.69657,-0.69657,-0.69657,-0.6957,-0.6957,-0.6957,-0.6957,-0.6957,-0.6957,-0.6957,-0.6957,-0.6957,-0.6957,-0.6957,-0.6957,-0.6957,-0.6957,-0.69482,-0.69482,-0.69545,-0.69545,-0.69545,-0.69545,-0.69545,-0.69545,-0.69545,-0.69545,-0.69545,-0.69545,-0.69545,-0.69458,-0.69458,-0.69458,-0.69458,-0.69458,-0.69458,-0.69458,-0.69458,-0.69458,-0.69458,-0.69458,-0.69458,-0.69458,-0.69458,-0.6937,-0.6937,-0.6937,-0.6937,-0.6937,-0.6937,-0.6937,-0.6937,-0.6937,-0.6937,-0.69433,-0.69432,-0.69432,-0.69345,-0.69345,-0.69345,-0.69345,-0.69345,-0.69345,-0.69345,-0.69345,-0.69345,-0.69346,-0.69346,-0.69346,-0.69346,-0.69346,-0.69346,-0.69346,-0.69346,-0.69346,-0.69346,-0.69346,-0.69346,-0.69346,-0.69347,-0.69347,-0.69347,-0.69347,-0.69347,-0.69347,-0.69347,-0.69347,-0.69347,-0.69435,-0.69435,-0.69435,-0.69435,-0.69435,-0.69435,-0.69435,-0.69435,-0.69372,-0.69373,-0.69373,-0.69373,-0.69373,-0.69373,-0.69373,-0.69373,-0.69373,-0.69373,-0.69373,-0.69373,-0.69373,-0.69373,-0.69374,-0.69374,-0.69374,-0.69374,-0.69374,-0.69374,-0.69374,-0.69374,-0.69374,-0.69374,-0.69374,-0.69374
-0.70727,-0.70727,-0.70727,-0.70727,-0.70712,-0.70712,-0.70712,-0.70712,-0.70712,-0.70712,-0.70712,-0.70712,-0.70712,-0.70712,-0.70712,-0.70696,-0.70696,-0.70696,-0.70696,-0.70696,-0.70696,-0.70696,-0.70696,-0.70696,-0.70697,-0.70681,-0.70681,-0.70681,-0.70681,-0.70681,-0.70681,-0.70681,-0.70681,-0.70681,-0.70681,-0.70681,-0.70666,-0.70666,-0.70687,-0.70687,-0.70687,-0.70687,-0.70687,-0.70687,-0.70687,-0.70687,-0.70672,-0.70672,-0.70672,-0.70672,-0.70672,-0.70672,-0.70672,-0.70672,-0.70672,-0.70672,-0.70656,-0.70656,-0.70656,-0.70656,-0.70656,-0.70672,-0.70687,-0.70681,-0.70697,-0.70712,-0.70728,-0.70743,-0.70759,-0.70737,-0.70753,-0.70768,-0.70784,-0.70799,-0.70815,-0.70809,-0.70824,-0.7084,-0.70855,-0.70855,-0.70871,-0.70865,-0.7088,-0.70896,-0.70911,-0.70927,-0.70942,-0.70936,-0.70951,-0.70951,-0.70967,-0.70982,-0.70998,-0.70992,-0.71007,-0.71023,-0.71038,-0.71053,-0.71069,-0.71047,-0.71063,-0.71078,-0.71094,-0.71109,-0.71125,-0.71118,-0.71134,-0.71149,-0.71149,-0.71165,-0.7118,-0.71196,-0.71189,-0.71205,-0.7122,-0.71236,-0.71251,-0.71267,-0.71245,-0.7126,-0.71276,-0.71291,-0.71307,-0.71322,-0.71316,-0.71331,-0.71439,-0.83648,-0.82388,-0.69718,-0.69657,-0.69657,-0.69657,-0.69657,-0.69657,-0.69657,-0.69657,-0.69657,-0.6957,-0.6957,-0.6957,-0.6957,-0.6957,-0.6957,-0.6957,-0.6957,-0.6957,-0.6957,-0.6957,-0.6957,-0.6957,-0.69482,-0.69482,-0.69482,-0.69545,-0.69545,-0.69545,-0.69545,-0.69545,-0.69545,-0.69545,-0.69545,-0.69545,-0.69545,-0.69545,-0.69458,-0.69458,-0.69458,-0.69458,-0.69458,-0.69458,-0.69458,-0.69458,-0.69458,-0.69458,-0.69458,-0.69458,-0.69458,-0.6937,-0.6937,-0.6937,-0.6937,-0.6937,-0.6937,-0.6937,-0.6937,-0.6937,-0.6937,-0.6937,-0.69433,-0.69433,-0.69345,-0.69345,-0.69345,-0.69345,-0.69345,-0.69345,-0.69345,-0.69345,-0.69345,-0.69346,-0.69346,-0.69346,-0.69346,-0.69346,-0.69346,-0.69346,-0.69346,-0.69346,-0.69346,-0.69346,-0.69346,-0.69346,-0.69346,-0.69347,-0.69347,-0.69347,-0.69347,-0.69347,-0.69347,-0.69347,-0.69347,-0.69347,-0.69347,-0.69435,-0.69435,-0.69435,-0.69435,-0.69435,-0.69435,-0.69435,-0.69435,-0.69373,-0.69373,-0.69373,-0.69373,-0.69373,-0.69373,-0.69373,-0.69373,-0.69373,-0.69373,-0.69373,-0.69373,-0.69373,-0.69374,-0.69374,-0.69374,-0.69374,-0.69374,-0.69374,-0.69374,-0.69374,-0.69374,-0.69374,-0.69374
-0.70727,-0.70712,-0.70712,-0.70712,-0.70712,-0.70712,-0.70712,-0.70712,-0.70712,-0.70712,-0.70712,-0.70712,-0.70696,-0.70696,-0.70696,-0.70696,-0.70696,-0.70696,-0.70696,-0.70696,-0.70696,-0.70696,-0.70681,-0.70681,-0.70681,-0.70681,-0.70681,-0.70681,-0.70681,-0.70681,-0.70681,-0.70681,-0.70666,-0.70666,-0.70666,-0.70687,-0.70687,-0.70687,-0.70687,-0.70687,-0.70687,-0.70687,-0.70687,-0.70672,-0.70672,-0.70672,-0.70672,-0.70672,-0.70672,-0.70672,-0.70672,-0.70672,-0.70672,-0.70656,-0.70656,-0.70656,-0.70656,-0.70656,-0.70656,-0.70656,-0.70672,-0.70672,-0.70666,-0.70681,-0.70697,-0.70712,-0.70728,-0.70743,-0.70759,-0.70753,-0.70768,-0.70768,-0.70784,-0.70799,-0.70815,-0.70809,-0.70824,-0.7084,-0.70855,-0.70871,-0.70886,-0.70865,-0.7088,-0.70896,-0.70911,-0.70927,-0.70942,-0.70936,-0.70951,-0.70967,-0.70982,-0.70982,-0.70998,-0.70992,-0.71007,-0.71023,-0.71038,-0.71053,-0.71069,-0.71063,-0.71078,-0.71078,-0.71094,-0.71109,-0.71125,-0.71118,-0.71134,-0.71149,-0.71165,-0.7118,-0.7118,-0.71174,-0.71189,-0.71205,-0.7122,-0.71236,-0.71251,-0.71245,-0.7126,-0.71276,-0.71276,-0.71291,-0.71307,-0.71322,-0.71316,-0.71331,-0.71439,-0.83681,-0.82386,-0.69718,-0.69657,-0.69657,-0.69657,-0.69657,-0.69657,-0.69657,-0.69657,-0.69657,-0.6957,-0.6957,-0.6957,-0.6957,-0.6957,-0.6957,-0.6957,-0.6957,-0.6957,-0.6957,-0.6957,-0.6957,-0.6957,-0.69482,-0.69482,-0.69482,-0.69545,-0.69545,-0.69545,-0.69545,-0.69545,-0.69545,-0.69545,-0.69545,-0.69545,-0.69545,-0.69545,-0.69458,-0.69458,-0.69458,-0.69458,-0.69458,-0.69458,-0.69458,-0.69458,-0.69458,-0.69458,-0.69458,-0.69458,-0.69458,-0.6937,-0.6937,-0.6937,-0.6937,-0.6937,-0.6937,-0.6937,-0.6937,-0.6937,-0.6937,-0.6937,-0.69433,-0.69433,-0.69433,-0.69345,-0.69345,-0.69345,-0.69345,-0.69345,-0.69345,-0.69345,-0.69345,-0.69345,-0.69346,-0.69346,-0.69346,-0.69346,-0.69346,-0.69346,-0.69346,-0.69346,-0.69346,-0.69346,-0.69346,-0.69346,-0.69346,-0.69347,-0.69347,-0.69347,-0.69347,-0.69347,-0.69347,-0.69347,-0.69347,-0.69347,-0.69347,-0.69347,-0.69347,-0.69347,-0.69435,-0.69435,-0.69435,-0.69435,-0.69435,-0.69435,-0.69435,-0.69373,-0.69373,-0.69373,-0.69373,-0.69373,-0.69373,-0.69373,-0.69373,-0.69373,-0.69373,-0.69373,-0.69374,-0.69374,-0.69374,-0.69374,-0.69374,-0.69374,-0.69374,-0.69374,-0.69374,-0.69374,-0.69374
-0.70712,-0.70712,-0.70712,-0.70712,-0.70712,-0.70712,-0.70712,-0.70712,-0.70712,-0.70696,-0.70696,-0.70696,-0.70696,-0.70696,-0.70696,-0.70696,-0.70696,-0.70696,-0.70696,-0.70681,-0.70681,-0.70681,-0.70681,-0.70681,-0.70681,-0.70681,-0.70681,-0.70681,-0.70681,-0.70666,-0.70666,-0.70666,-0.70687,-0.70687,-0.70687,-0.70687,-0.70687,-0.70687,-0.70687,-0.70687,-0.70672,-0.70672,-0.70672,-0.70672,-0.70672,-0.70672,-0.70672,-0.70672,-0.70672,-0.70672,-0.70656,-0.70656,-0.70656,-0.70656,-0.70656,-0.70656,-0.70656,-0.70656,-0.70656,-0.70656,-0.70672,-0.70687,-0.70681,-0.70681,-0.70697,-0.70712,-0.70728,-0.70743,-0.70737,-0.70753,-0.70768,-0.70784,-0.70799,-0.70799,-0.70793,-0.70809,-0.70824,-0.7084,-0.70855,-0.70871,-0.70864,-0.7088,-0.70896,-0.70896,-0.70911,-0.70927,-0.70942,-0.70936,-0.70951,-0.70967,-0.70982,-0.70998,-0.71013,-0.70992,-0.71007,-0.71023,-0.71038,-0.71053,-0.71069,-0.71063,-0.71078,-0.71094,-0.71109,-0.71109,-0.71125,-0.71118,-0.71134,-0.71149,-0.71165,-0.7118,-0.71196,-0.71189,-0.71189,-0.71205,-0.7122,-0.71236,-0.71251,-0.71245,-0.7126,-0.71276,-0.71291,-0.71307,-0.71307,-0.713,-0.71316,-0.71331,-0.71439,-0.83648,-0.82317,-0.69718,-0.69657,-0.69657,-0.69657,-0.69657,-0.69657,-0.69657,-0.69657,-0.69657,-0.6957,-0.6957,-0.6957,-0.6957,-0.6957,-0.6957,-0.6957,-0.6957,-0.6957,-0.6957,-0.6957,-0.6957,-0.6957,-0.6957,-0.69482,-0.69482,-0.69545,-0.69545,-0.69545,-0.69545,-0.69545,-0.69545,-0.69545,-0.69545,-0.69545,-0.69545,-0.69545,-0.69458,-0.69458,-0.69458,-0.69458,-0.69458,-0.69458,-0.69458,-0.69458,-0.69458,-0.69458,-0.69458,-0.69458,-0.69458,-0.6937,-0.6937,-0.6937,-0.6937,-0.6937,-0.6937,-0.6937,-0.6937,-0.6937,-0.6937,-0.6937,-0.69433,-0.69433,-0.69433,-0.69345,-0.69345,-0.69345,-0.69345,-0.69345,-0.69345,-0.69345,-0.69345,-0.69345,-0.69346,-0.69346,-0.69346,-0.69346,-0.69346,-0.69346,-0.69346,-0.69346,-0.69346,-0.69346,-0.69346,-0.69346,-0.69346,-0.69347,-0.69347,-0.69347,-0.69347,-0.69347,-0.69347,-0.69347,-0.69347,-0.69347,-0.69347,-0.69347,-0.69347,-0.69347,-0.69347,-0.69348,-0.69435,-0.69435,-0.69435,-0.69435,-0.69435,-0.69435,-0.69435,-0.69373,-0.69373,-0.69373,-0.69373,-0.69373,-0.69373,-0.69373,-0.69373,-0.69373,-0.69374,-0.69374,-0.69374,-0.69374,-0.69374,-0.69374,-0.69374,-0.69374,-0.69374,-0.69374,-0.69374
-0.70712,-0.70712,-0.70712,-0.70712,-0.70712,-0.70712,-0.70696,-0.70696,-0.70696,-0.70696,-0.70696,-0.70696,-0.70696,-0.70696,-0.70696,-0.70696,-0.70681,-0.70681,-0.70681,-0.70681,-0.70681,-0.70681,-0.70681,-0.70681,-0.70681,-0.70681,-0.70665,-0.70665,-0.70687,-0.70687,-0.70687,-0.70687,-0.70687,-0.70687,-0.70687,-0.70687,-0.70687,-0.70672,-0.70672,-0.70672,-0.70672,-0.70672,-0.70672,-0.70672,-0.70672,-0.70672,-0.70672,-0.70656,-0.70656,-0.70656,-0.70656,-0.70656,-0.70656,-0.70656,-0.70656,-0.70656,-0.70656,-0.70641,-0.70656,-0.70656,-0.70672,-0.70687,-0.70681,-0.70697,-0.70712,-0.70712,-0.70728,-0.70743,-0.70737,-0.70753,-0.70768,-0.70784,-0.70799,-0.70815,-0.70809,-0.70809,-0.70824,-0.7084,-0.70855,-0.70871,-0.70864,-0.7088,-0.70896,-0.70911,-0.70927,-0.70927,-0.7092,-0.70936,-0.70951,-0.70967,-0.70982,-0.70998,-0.70992,-0.71007,-0.71023,-0.71023,-0.71038,-0.71053,-0.71069,-0.71063,-0.71078,-0.71094,-0.71109,-0.71125,-0.7114,-0.71118,-0.71134,-0.71149,-0.71165,-0.7118,-0.71196,-0.71189,-0.71205,-0.7122,-0.7122,-0.71236,-0.71251,-0.71245,-0.7126,-0.71276,-0.71291,-0.71307,-0.71322,-0.71316,-0.71316,-0.71331,-0.71455,-0.83614,-0.82317,-0.69718,-0.69657,-0.69657,-0.69657,-0.69657,-0.69657,-0.69657,-0.69657,-0.69657,-0.6957,-0.6957,-0.6957,-0.6957,-0.6957,-0.6957,-0.6957,-0.6957,-0.6957,-0.6957,-0.6957,-0.6957,-0.6957,-0.6957,-0.69482,-0.69482,-0.69545,-0.69545,-0.69545,-0.69545,-0.69545,-0.69545,-0.69545,-0.69545,-0.69545,-0.69545,-0.69545,-0.69458,-0.69458,-0.69458,-0.69458,-0.69458,-0.69458,-0.69458,-0.69458,-0.69458,-0.69458,-0.69458,-0.69458,-0.69458,-0.69458,-0.6937,-0.6937,-0.6937,-0.6937,-0.6937,-0.6937,-0.6937,-0.6937,-0.6937,-0.6937,-0.69433,-0.69433,-0.69433,-0.69345,-0.69345,-0.69345,-0.69345,-0.69345,-0.69345,-0.69345,-0.69345,-0.69345,-0.69345,-0.69346,-0.69346,-0.69346,-0.69346,-0.69346,-0.69346,-0.69346,-0.69346,-0.69346,-0.69346,-0.69346,-0.69346,-0.69346,-0.69347,-0.69347,-0.69347,-0.69347,-0.69347,-0.69347,-0.69347,-0.69347,-0.69347,-0.69347,-0.69347,-0.69347,-0.69347,-0.69348,-0.69348,-0.69348,-0.69435,-0.69435,-0.69435,-0.69435,-0.69435,-0.69435,-0.69436,-0.69373,-0.69373,-0.69373,-0.69373,-0.69373,-0.69373,-0.69373,-0.69373,-0.69374,-0.69374,-0.69374,-0.69374,-0.69374,-0.69374,-0.69374,-0.69374,-0.69374,-0.69374
-0.70712,-0.70712,-0.70696,-0.70696,-0.70696,-0.70696,-0.70696,-0.70696,-0.70696,-0.70696,-0.70696,-0.70696,-0.70696,-0.70681,-0.70681,-0.70681,-0.70681,-0.70681,-0.70681,-0.70681,-0.70681,-0.70681,-0.70681,-0.70665,-0.70665,-0.70665,-0.70687,-0.70687,-0.70687,-0.70687,-0.70687,-0.70687,-0.70687,-0.70687,-0.70672,-0.70672,-0.70672,-0.70672,-0.70672,-0.70672,-0.70672,-0.70672,-0.70672,-0.70672,-0.70656,-0.70656,-0.70656,-0.70656,-0.70656,-0.70656,-0.70656,-0.70656,-0.70656,-0.70656,-0.70641,-0.70641,-0.70641,-0.70641,-0.70641,-0.70656,-0.70672,-0.70687,-0.70681,-0.70697,-0.70712,-0.70728,-0.70743,-0.70743,-0.70737,-0.70753,-0.70768,-0.70784,-0.70799,-0.70815,-0.70809,-0.70824,-0.7084,-0.7084,-0.70855,-0.70871,-0.70864,-0.7088,-0.70896,-0.70911,-0.70927,-0.70942,-0.70936,-0.70936,-0.70951,-0.70967,-0.70982,-0.70998,-0.70991,-0.71007,-0.71023,-0.71038,-0.71053,-0.71053,-0.71047,-0.71063,-0.71078,-0.71094,-0.71109,-0.71125,-0.7114,-0.71134,-0.71134,-0.71149,-0.71165,-0.7118,-0.71196,-0.71189,-0.71205,-0.7122,-0.71236,-0.71251,-0.71251,-0.71245,-0.7126,-0.71276,-0.71291,-0.71307,-0.71322,-0.71316,-0.71331,-0.71347,-0.71455,-0.83614,-0.82386,-0.69718,-0.69657,-0.69657,-0.69657,-0.69657,-0.69657,-0.69657,-0.69657,-0.69657,-0.69657,-0.6957,-0.6957,-0.6957,-0.6957,-0.6957,-0.6957,-0.6957,-0.6957,-0.6957,-0.6957,-0.6957,-0.6957,-0.6957,-0.69482,-0.69482,-0.69482,-0.69545,-0.69545,-0.69545,-0.69545,-0.69545,-0.69545,-0.69545,-0.69545,-0.69545,-0.69545,-0.69458,-0.69458,-0.69458,-0.69458,-0.69458,-0.69458,-0.69458,-0.69458,-0.69458,-0.69458,-0.69458,-0.69458,-0.69458,-0.69458,-0.6937,-0.6937,-0.6937,-0.6937,-0.6937,-0.6937,-0.6937,-0.6937,-0.6937,-0.6937,-0.6937,-0.69433,-0.69433,-0.69345,-0.69345,-0.69345,-0.69345,-0.69345,-0.69345,-0.69345,-0.69345,-0.69345,-0.69345,-0.69346,-0.69346,-0.69346,-0.69346,-0.69346,-0.69346,-0.69346,-0.69346,-0.69346,-0.69346,-0.69346,-0.69346,-0.69346,-0.69347,-0.69347,-0.69347,-0.69347,-0.69347,-0.69347,-0.69347,-0.69347,-0.69347,-0.69347,-0.69347,-0.69347,-0.69347,-0.69347,-0.69348,-0.69348,-0.69348,-0.69348,-0.69435,-0.69435,-0.69435,-0.69435,-0.69436,-0.69436,-0.69373,-0.69373,-0.69373,-0.69373,-0.69373,-0.69373,-0.69373,-0.69374,-0.69374,-0.69374,-0.69374,-0.69374,-0.69374,-0.69374,-0.69374,-0.69374,-0.69374
