0.70453,0.70453,0.70468,0.70468,0.70468,0.70468,0.70468,0.70468,0.70468,0.70468,0.70468,0.70468,0.70468,0.70484,0.70484,0.70484,0.70484,0.70484,0.70484,0.70484,0.70484,0.70484,0.70484,0.705,0.705,0.705,0.70478,0.70478,0.70478,0.70478,0.70478,0.70478,0.70478,0.70478,0.70494,0.70494,0.70494,0.70494,0.70494,0.70494,0.70494,0.70494,0.70494,0.70494,0.70509,0.70509,0.70509,0.70509,0.70509,0.70509,0.70509,0.70509,0.70509,0.70509,0.70525,0.70525,0.70525,0.70525,0.70525,0.70525,0.70525,0.70525,0.70525,0.70525,0.70525,0.7054,0.7054,0.7054,0.7054,0.7054,0.7054,0.7054,0.7054,0.7054,0.7054,0.70556,0.70556,0.70556,0.70556,0.70556,0.70556,0.70556,0.70556,0.70535,0.70535,0.7055,0.7055,0.7055,0.7055,0.7055,0.7055,0.7055,0.7055,0.7055,0.7055,0.7055,0.70534,0.7054,0.7054,0.70525,0.70509,0.70494,0.70478,0.70484,0.70469,0.70453,0.70438,0.70422,0.70422,0.70428,0.70413,0.70397,0.70382,0.70366,0.7035,0.70357,0.70341,0.70325,0.70325,0.7031,0.70294,0.703,0.70285,0.70269,0.70254,0.70238,0.70128,0.54946,-0.56893,-0.71692,-0.71812,-0.71812,-0.71812,-0.71812,-0.71812,-0.71893,-0.71893,-0.71834,-0.71834,-0.71834,-0.71834,-0.71834,-0.71834,-0.71834,-0.71834,-0.71834,-0.71834,-0.71834,-0.71915,-0.71915,-0.71915,-0.71915,-0.71915,-0.71915,-0.71915,-0.71915,-0.71915,-0.71915,-0.71915,-0.71915,-0.71915,-0.71915,-0.71915,-0.71915,-0.71915,-0.71916,-0.71916,-0.71916,-0.71916,-0.71916,-0.71916,-0.71916,-0.71916,-0.71916,-0.71916,-0.71916,-0.71916,-0.71916,-0.71917,-0.71917,-0.71917,-0.71917,-0.71917,-0.71917,-0.71917,-0.71917,-0.71917,-0.71917,-0.71917,-0.71917,-0.71917,-0.71917,-0.71918,-0.71918,-0.71918,-0.71918,-0.71918,-0.71918,-0.71918,-0.71918,-0.71918,-0.71918,-0.71918,-0.71918,-0.71918,-0.71919,-0.71919,-0.71919,-0.71919,-0.71919,-0.71919,-0.71919,-0.71919,-0.71919,-0.71919,-0.71919,-0.71919,-0.71919,-0.7192,-0.7192,-0.7192,-0.7192,-0.7192,-0.7192,-0.7192,-0.7192,-0.7192,-0.7192,-0.7192,-0.7192,-0.7192,-0.7192,-0.7192,-0.7192,-0.7192,-0.7192,-0.71921,-0.71921,-0.71921,-0.71921,-0.71921,-0.71921,-0.71839,-0.71839,-0.71839,-0.7184,-0.7184,-0.7184,-0.7184,-0.7184,-0.7184,-0.7184,-0.7184,-0.7184,-0.7184,-0.7184
0.70468,0.70468,0.70468,0.70468,0.70468,0.70468,0.70468,0.70468,0.70468,0.70468,0.70484,0.70484,0.70484,0.70484,0.70484,0.70484,0.70484,0.70484,0.70484,0.70484,0.705,0.705,0.705,0.70478,0.70478,0.70478,0.70478,0.70478,0.70478,0.70478,0.70478,0.70494,0.70494,0.70494,0.70494,0.70494,0.70494,0.70494,0.70494,0.70494,0.70494,0.70509,0.70509,0.70509,0.70509,0.70509,0.70509,0.70509,0.70509,0.70509,0.70509,0.70525,0.70525,0.70525,0.70525,0.70525,0.70525,0.70525,0.70525,0.70525,0.70525,0.70525,0.7054,0.7054,0.7054,0.7054,0.7054,0.7054,0.7054,0.7054,0.7054,0.7054,0.70556,0.70556,0.70556,0.70556,0.70556,0.70556,0.70556,0.70556,0.70535,0.70535,0.7055,0.7055,0.7055,0.7055,0.7055,0.7055,0.7055,0.7055,0.7055,0.7055,0.7055,0.70565,0.70565,0.7055,0.70556,0.7054,0.70525,0.70509,0.70509,0.70494,0.705,0.70484,0.70469,0.70453,0.70438,0.70422,0.70407,0.70413,0.70413,0.70397,0.70382,0.70366,0.7035,0.70357,0.70341,0.70325,0.7031,0.70294,0.70294,0.703,0.70285,0.70269,0.70254,0.70238,0.70128,0.54996,-0.56796,-0.71692,-0.71812,-0.71812,-0.71812,-0.71812,-0.71812,-0.71893,-0.71893,-0.71834,-0.71834,-0.71834,-0.71834,-0.71834,-0.71834,-0.71834,-0.71834,-0.71834,-0.71834,-0.71834,-0.71834,-0.71915,-0.71915,-0.71915,-0.71915,-0.71915,-0.71915,-0.71915,-0.71915,-0.71915,-0.71915,-0.71915,-0.71915,-0.71915,-0.71915,-0.71915,-0.71915,-0.71916,-0.71916,-0.71916,-0.71916,-0.71916,-0.71916,-0.71916,-0.71916,-0.71916,-0.71916,-0.71916,-0.71916,-0.71916,-0.71916,-0.71917,-0.71917,-0.71917,-0.71917,-0.71917,-0.71917,-0.71917,-0.71917,-0.71917,-0.71917,-0.71917,-0.71917,-0.71917,-0.71918,-0.71918,-0.71918,-0.71918,-0.71918,-0.71918,-0.71918,-0.71918,-0.71918,-0.71918,-0.71918,-0.71918,-0.71918,-0.71919,-0.71919,-0.71919,-0.71919,-0.71919,-0.71919,-0.71919,-0.71919,-0.71919,-0.71919,-0.71919,-0.71919,-0.71919,-0.7192,-0.7192,-0.7192,-0.7192,-0.7192,-0.7192,-0.7192,-0.7192,-0.7192,-0.7192,-0.7192,-0.7192,-0.7192,-0.7192,-0.7192,-0.7192,-0.7192,-0.7192,-0.71921,-0.71921,-0.71921,-0.71921,-0.71921,-0.71921,-0.71921,-0.71921,-0.71921,-0.7184,-0.7184,-0.7184,-0.7184,-0.7184,-0.7184,-0.7184,-0.7184,-0.7184,-0.7184,-0.7184
0.70468,0.70468,0.70468,0.70468,0.70468,0.70468,0.70468,0.70484,0.70484,0.70484,0.70484,0.70484,0.70484,0.70484,0.70484,0.70484,0.70484,0.70499,0.70499,0.70499,0.70478,0.70478,0.70478,0.70478,0.70478,0.70478,0.70478,0.70494,0.70494,0.70494,0.70494,0.70494,0.70494,0.70494,0.70494,0.70494,0.70494,0.70494,0.70509,0.70509,0.70509,0.70509,0.70509,0.70509,0.70509,0.70509,0.70509,0.70509,0.70525,0.70525,0.70525,0.70525,0.70525,0.70525,0.70525,0.70525,0.70525,0.70525,0.70525,0.7054,0.7054,0.7054,0.7054,0.7054,0.7054,0.7054,0.7054,0.7054,0.7054,0.70556,0.70556,0.70556,0.70556,0.70556,0.70556,0.70556,0.70556,0.70535,0.70535,0.7055,0.7055,0.7055,0.7055,0.7055,0.7055,0.7055,0.7055,0.7055,0.7055,0.7055,0.70566,0.70566,0.70566,0.70566,0.70566,0.7055,0.70556,0.7054,0.70525,0.70509,0.70494,0.70478,0.705,0.70484,0.70469,0.70453,0.70438,0.70422,0.70428,0.70413,0.70397,0.70382,0.70382,0.70366,0.70372,0.70357,0.70341,0.70325,0.7031,0.70294,0.70279,0.70285,0.70285,0.70269,0.70254,0.70238,0.70128,0.54946,-0.56796,-0.71692,-0.71812,-0.71812,-0.71812,-0.71812,-0.71812,-0.71893,-0.71893,-0.71893,-0.71834,-0.71834,-0.71834,-0.71834,-0.71834,-0.71834,-0.71834,-0.71834,-0.71834,-0.71834,-0.71834,-0.71915,-0.71915,-0.71915,-0.71915,-0.71915,-0.71915,-0.71915,-0.71915,-0.71915,-0.71915,-0.71915,-0.71915,-0.71915,-0.71915,-0.71915,-0.71915,-0.71915,-0.71916,-0.71916,-0.71916,-0.71916,-0.71916,-0.71916,-0.71916,-0.71916,-0.71916,-0.71916,-0.71916,-0.71916,-0.71916,-0.71917,-0.71917,-0.71917,-0.71917,-0.71917,-0.71917,-0.71917,-0.71917,-0.71917,-0.71917,-0.71917,-0.71917,-0.71917,-0.71918,-0.71918,-0.71918,-0.71918,-0.71918,-0.71918,-0.71918,-0.71918,-0.71918,-0.71918,-0.71918,-0.71918,-0.71918,-0.71918,-0.71919,-0.71919,-0.71919,-0.71919,-0.71919,-0.71919,-0.71919,-0.71919,-0.71919,-0.71919,-0.71919,-0.71919,-0.71919,-0.7192,-0.7192,-0.7192,-0.7192,-0.7192,-0.7192,-0.7192,-0.7192,-0.7192,-0.7192,-0.7192,-0.7192,-0.7192,-0.7192,-0.7192,-0.7192,-0.7192,-0.7192,-0.71921,-0.71921,-0.71921,-0.71921,-0.71921,-0.71921,-0.71921,-0.71921,-0.71921,-0.71921,-0.7184,-0.7184,-0.7184,-0.7184,-0.7184,-0.7184,-0.7184,-0.7184,-0.7184
0.70468,0.70468,0.70468,0.70468,0.70484,0.70484,0.70484,0.70484,0.70484,0.70484,0.70484,0.70484,0.70484,0.70484,0.70499,0.70499,0.70499,0.70478,0.70478,0.70478,0.70478,0.70478,0.70478,0.70478,0.70494,0.70494,0.70494,0.70494,0.70494,0.70494,0.70494,0.70494,0.70494,0.70494,0.70494,0.70509,0.70509,0.70509,0.70509,0.70509,0.70509,0.70509,0.70509,0.70509,0.70509,0.70525,0.70525,0.70525,0.70525,0.70525,0.70525,0.70525,0.70525,0.70525,0.70525,0.7054,0.7054,0.7054,0.7054,0.7054,0.7054,0.7054,0.7054,0.7054,0.7054,0.7054,0.70556,0.70556,0.70556,0.70556,0.70556,0.70556,0.70556,0.70556,0.70535,0.70535,0.7055,0.7055,0.7055,0.7055,0.7055,0.7055,0.7055,0.7055,0.7055,0.7055,0.7055,0.70566,0.70566,0.70566,0.70566,0.70566,0.70566,0.70566,0.7055,0.7055,0.70556,0.7054,0.70525,0.70509,0.70494,0.70478,0.70484,0.70469,0.70469,0.70453,0.70438,0.70422,0.70428,0.70413,0.70397,0.70382,0.70366,0.7035,0.70372,0.70357,0.70341,0.70325,0.7031,0.70294,0.703,0.70285,0.70269,0.70254,0.70254,0.70238,0.70112,0.54895,-0.56797,-0.71692,-0.71812,-0.71812,-0.71812,-0.71812,-0.71812,-0.71812,-0.71893,-0.71893,-0.71834,-0.71834,-0.71834,-0.71834,-0.71834,-0.71834,-0.71834,-0.71834,-0.71834,-0.71834,-0.71834,-0.71915,-0.71915,-0.71915,-0.71915,-0.71915,-0.71915,-0.71915,-0.71915,-0.71915,-0.71915,-0.71915,-0.71915,-0.71915,-0.71915,-0.71915,-0.71915,-0.71915,-0.71916,-0.71916,-0.71916,-0.71916,-0.71916,-0.71916,-0.71916,-0.71916,-0.71916,-0.71916,-0.71916,-0.71916,-0.71916,-0.71917,-0.71917,-0.71917,-0.71917,-0.71917,-0.71917,-0.71917,-0.71917,-0.71917,-0.71917,-0.71917,-0.71917,-0.71917,-0.71917,-0.71918,-0.71918,-0.71918,-0.71918,-0.71918,-0.71918,-0.71918,-0.71918,-0.71918,-0.71918,-0.71918,-0.71918,-0.71918,-0.71919,-0.71919,-0.71919,-0.71919,-0.71919,-0.71919,-0.71919,-0.71919,-0.71919,-0.71919,-0.71919,-0.71919,-0.71919,-0.7192,-0.7192,-0.7192,-0.7192,-0.7192,-0.7192,-0.7192,-0.7192,-0.7192,-0.7192,-0.7192,-0.7192,-0.7192,-0.7192,-0.7192,-0.7192,-0.7192,-0.7192,-0.71921,-0.71921,-0.71921,-0.71921,-0.71921,-0.71921,-0.71921,-0.71921,-0.71921,-0.71921,-0.71921,-0.71921,-0.7184,-0.7184,-0.7184,-0.7184,-0.7184,-0.7184,-0.7184
0.70484,0.70484,0.70484,0.70484,0.70484,0.70484,0.70484,0.70484,0.70484,0.70484,0.70484,0.70499,0.70499,0.70499,0.70478,0.70478,0.70478,0.70478,0.70478,0.70478,0.70478,0.70494,0.70494,0.70494,0.70494,0.70494,0.70494,0.70494,0.70494,0.70494,0.70494,0.70494,0.70509,0.70509,0.70509,0.70509,0.70509,0.70509,0.70509,0.70509,0.70509,0.70509,0.70525,0.70525,0.70525,0.70525,0.70525,0.70525,0.70525,0.70525,0.70525,0.70525,0.7054,0.7054,0.7054,0.7054,0.7054,0.7054,0.7054,0.7054,0.7054,0.7054,0.7054,0.70556,0.70556,0.70556,0.70556,0.70556,0.70556,0.70556,0.70556,0.70535,0.70535,0.7055,0.7055,0.7055,0.7055,0.7055,0.7055,0.7055,0.7055,0.7055,0.7055,0.7055,0.70566,0.70566,0.70566,0.70566,0.70566,0.70566,0.70566,0.70566,0.70566,0.70566,0.7055,0.70534,0.70556,0.7054,0.70525,0.70509,0.70494,0.70478,0.70484,0.70469,0.70453,0.70438,0.70438,0.70422,0.70428,0.70413,0.70397,0.70382,0.70366,0.7035,0.70357,0.70341,0.70341,0.70325,0.7031,0.70294,0.703,0.70285,0.70269,0.70254,0.70238,0.70222,0.70112,0.54895,-0.56797,-0.71692,-0.71812,-0.71812,-0.71812,-0.71812,-0.71812,-0.71812,-0.71893,-0.71893,-0.71834,-0.71834,-0.71834,-0.71834,-0.71834,-0.71834,-0.71834,-0.71834,-0.71834,-0.71834,-0.71834,-0.71915,-0.71915,-0.71915,-0.71915,-0.71915,-0.71915,-0.71915,-0.71915,-0.71915,-0.71915,-0.71915,-0.71915,-0.71915,-0.71915,-0.71915,-0.71915,-0.71915,-0.71916,-0.71916,-0.71916,-0.71916,-0.71916,-0.71916,-0.71916,-0.71916,-0.71916,-0.71916,-0.71916,-0.71916,-0.71916,-0.71916,-0.71917,-0.71917,-0.71917,-0.71917,-0.71917,-0.71917,-0.71917,-0.71917,-0.71917,-0.71917,-0.71917,-0.71917,-0.71917,-0.71918,-0.71918,-0.71918,-0.71918,-0.71918,-0.71918,-0.71918,-0.71918,-0.71918,-0.71918,-0.71918,-0.71918,-0.71918,-0.71919,-0.71919,-0.71919,-0.71919,-0.71919,-0.71919,-0.71919,-0.71919,-0.71919,-0.71919,-0.71919,-0.71919,-0.71919,-0.71919,-0.7192,-0.7192,-0.7192,-0.7192,-0.7192,-0.7192,-0.7192,-0.7192,-0.7192,-0.7192,-0.7192,-0.7192,-0.7192,-0.7192,-0.7192,-0.7192,-0.7192,-0.71921,-0.71921,-0.71921,-0.71921,-0.71921,-0.71921,-0.71921,-0.71921,-0.71921,-0.71921,-0.71921,-0.71921,-0.71921,-0.71921,-0.7184,-0.7184,-0.7184,-0.7184,-0.7184
0.70484,0.70484,0.70484,0.70484,0.70484,0.70484,0.70484,0.70484,0.70499,0.70499,0.70499,0.70478,0.70478,0.70478,0.70478,0.70478,0.70478,0.70478,0.70494,0.70494,0.70494,0.70494,0.70494,0.70494,0.70494,0.70494,0.70494,0.70494,0.70494,0.70509,0.70509,0.70509,0.70509,0.70509,0.70509,0.70509,0.70509,0.70509,0.70509,0.70525,0.70525,0.70525,0.70525,0.70525,0.70525,0.70525,0.70525,0.70525,0.70525,0.7054,0.7054,0.7054,0.7054,0.7054,0.7054,0.7054,0.7054,0.7054,0.7054,0.7054,0.70556,0.70556,0.70556,0.70556,0.70556,0.70556,0.70556,0.70556,0.70535,0.70535,0.7055,0.7055,0.7055,0.7055,0.7055,0.7055,0.7055,0.7055,0.7055,0.7055,0.70566,0.70566,0.70566,0.70566,0.70566,0.70566,0.70566,0.70566,0.70566,0.70566,0.70566,0.70581,0.70581,0.70566,0.7055,0.70556,0.7054,0.70525,0.70525,0.70509,0.70494,0.70478,0.70484,0.70469,0.70453,0.70438,0.70422,0.70407,0.70428,0.70413,0.70397,0.70382,0.70366,0.7035,0.70357,0.70341,0.70325,0.7031,0.7031,0.70294,0.703,0.70285,0.70269,0.70254,0.70238,0.70222,0.70135,0.54844,-0.56797,-0.71692,-0.71812,-0.71812,-0.71812,-0.71812,-0.71812,-0.71812,-0.71893,-0.71893,-0.71834,-0.71834,-0.71834,-0.71834,-0.71834,-0.71834,-0.71834,-0.71834,-0.71834,-0.71834,-0.71834,-0.71915,-0.71915,-0.71915,-0.71915,-0.71915,-0.71915,-0.71915,-0.71915,-0.71915,-0.71915,-0.71915,-0.71915,-0.71915,-0.71915,-0.71996,-0.71996,-0.71996,-0.71915,-0.71916,-0.71916,-0.71916,-0.71916,-0.71916,-0.71916,-0.71916,-0.71916,-0.71916,-0.71916,-0.71916,-0.71916,-0.71916,-0.71917,-0.71917,-0.71917,-0.71917,-0.71917,-0.71917,-0.71917,-0.71917,-0.71917,-0.71917,-0.71917,-0.71917,-0.71917,-0.71918,-0.71918,-0.71918,-0.71918,-0.71918,-0.71918,-0.71918,-0.71918,-0.71918,-0.71918,-0.71918,-0.71918,-0.71918,-0.71918,-0.71919,-0.71919,-0.71919,-0.71919,-0.71919,-0.71919,-0.71919,-0.71919,-0.71919,-0.71919,-0.71919,-0.71919,-0.71919,-0.7192,-0.7192,-0.7192,-0.7192,-0.7192,-0.7192,-0.7192,-0.7192,-0.7192,-0.7192,-0.7192,-0.7192,-0.7192,-0.7192,-0.7192,-0.7192,-0.7192,-0.7192,-0.71921,-0.71921,-0.71921,-0.71921,-0.71921,-0.71921,-0.71921,-0.71921,-0.71921,-0.71921,-0.71921,-0.71921,-0.71921,-0.71921,-0.71921,-0.71921,-0.7184,-0.7184
0.70484,0.70484,0.70484,0.70484,0.70484,0.70499,0.70499,0.70499,0.70478,0.70478,0.70478,0.70478,0.70478,0.70478,0.70478,0.70494,0.70494,0.70494,0.70494,0.70494,0.70494,0.70494,0.70494,0.70494,0.70494,0.70509,0.70509,0.70509,0.70509,0.70509,0.70509,0.70509,0.70509,0.70509,0.70509,0.70509,0.70525,0.70525,0.70525,0.70525,0.70525,0.70525,0.70525,0.70525,0.70525,0.70525,0.7054,0.7054,0.7054,0.7054,0.7054,0.7054,0.7054,0.7054,0.7054,0.7054,0.7054,0.70556,0.70556,0.70556,0.70556,0.70556,0.70556,0.70556,0.70556,0.70534,0.70534,0.7055,0.7055,0.7055,0.7055,0.7055,0.7055,0.7055,0.7055,0.7055,0.7055,0.70566,0.70566,0.70566,0.70566,0.70566,0.70566,0.70566,0.70566,0.70566,0.70566,0.70566,0.70581,0.70581,0.70581,0.70581,0.70581,0.70566,0.7055,0.70556,0.7054,0.70525,0.70509,0.70494,0.70494,0.705,0.70484,0.70469,0.70453,0.70438,0.70422,0.70428,0.70413,0.70397,0.70397,0.70382,0.70366,0.7035,0.70357,0.70341,0.70325,0.7031,0.70294,0.70279,0.703,0.70285,0.70269,0.70254,0.70238,0.70222,0.70135,0.54742,-0.56894,-0.71692,-0.71812,-0.71812,-0.71812,-0.71812,-0.71812,-0.71812,-0.71893,-0.71893,-0.71893,-0.71834,-0.71834,-0.71834,-0.71834,-0.71834,-0.71834,-0.71834,-0.71834,-0.71834,-0.71834,-0.71834,-0.71915,-0.71915,-0.71915,-0.71915,-0.71915,-0.71915,-0.71915,-0.71915,-0.71915,-0.71915,-0.71915,-0.71915,-0.71915,-0.71996,-0.71996,-0.71996,-0.71996,-0.71997,-0.71916,-0.71916,-0.71916,-0.71916,-0.71916,-0.71916,-0.71916,-0.71916,-0.71916,-0.71916,-0.71916,-0.71916,-0.71916,-0.71917,-0.71917,-0.71917,-0.71917,-0.71917,-0.71917,-0.71917,-0.71917,-0.71917,-0.71917,-0.71917,-0.71917,-0.71917,-0.71918,-0.71918,-0.71918,-0.71918,-0.71918,-0.71918,-0.71918,-0.71918,-0.71918,-0.71918,-0.71918,-0.71918,-0.71918,-0.71919,-0.71919,-0.71919,-0.71919,-0.71919,-0.71919,-0.71919,-0.71919,-0.71919,-0.71919,-0.71919,-0.71919,-0.71919,-0.7192,-0.7192,-0.7192,-0.7192,-0.7192,-0.7192,-0.7192,-0.7192,-0.7192,-0.7192,-0.7192,-0.7192,-0.7192,-0.7192,-0.7192,-0.7192,-0.7192,-0.7192,-0.71921,-0.71921,-0.71921,-0.71921,-0.71921,-0.71921,-0.71921,-0.71921,-0.71921,-0.71921,-0.71921,-0.71921,-0.71921,-0.71921,-0.71921,-0.71921,-0.71921,-0.71921
0.70484,0.70484,0.70499,0.70499,0.70478,0.70478,0.70478,0.70478,0.70478,0.70478,0.70478,0.70478,0.70494,0.70494,0.70494,0.70494,0.70494,0.70494,0.70494,0.70494,0.70494,0.70494,0.70509,0.70509,0.70509,0.70509,0.70509,0.70509,0.70509,0.70509,0.70509,0.70509,0.70509,0.70525,0.70525,0.70525,0.70525,0.70525,0.70525,0.70525,0.70525,0.70525,0.70525,0.7054,0.7054,0.7054,0.7054,0.7054,0.7054,0.7054,0.7054,0.7054,0.7054,0.70556,0.70556,0.70556,0.70556,0.70556,0.70556,0.70556,0.70556,0.70556,0.70534,0.70534,0.7055,0.7055,0.7055,0.7055,0.7055,0.7055,0.7055,0.7055,0.7055,0.7055,0.70566,0.70566,0.70566,0.70566,0.70566,0.70566,0.70566,0.70566,0.70566,0.70566,0.70566,0.70581,0.70581,0.70581,0.70581,0.70581,0.70581,0.70581,0.70566,0.70566,0.7055,0.70556,0.7054,0.70525,0.70509,0.70494,0.70478,0.70484,0.70484,0.70469,0.70453,0.70438,0.70422,0.70428,0.70413,0.70397,0.70382,0.70366,0.70366,0.70372,0.70357,0.70341,0.70325,0.7031,0.70294,0.703,0.70285,0.70269,0.70269,0.70254,0.70238,0.70222,0.70119,0.54897,-0.56796,-0.71692,-0.71812,-0.71812,-0.71812,-0.71812,-0.71812,-0.71812,-0.71812,-0.71893,-0.71893,-0.71834,-0.71834,-0.71834,-0.71834,-0.71834,-0.71834,-0.71834,-0.71834,-0.71834,-0.71834,-0.71834,-0.71915,-0.71915,-0.71915,-0.71915,-0.71915,-0.71915,-0.71915,-0.71915,-0.71915,-0.71915,-0.71915,-0.71915,-0.71915,-0.71996,-0.71996,-0.71996,-0.71996,-0.71996,-0.71997,-0.71997,-0.71916,-0.71916,-0.71916,-0.71916,-0.71916,-0.71916,-0.71916,-0.71916,-0.71916,-0.71916,-0.71916,-0.71917,-0.71917,-0.71917,-0.71917,-0.71917,-0.71917,-0.71917,-0.71917,-0.71917,-0.71917,-0.71917,-0.71917,-0.71917,-0.71918,-0.71918,-0.71918,-0.71918,-0.71918,-0.71918,-0.71918,-0.71918,-0.71918,-0.71918,-0.71918,-0.71918,-0.71918,-0.71919,-0.71919,-0.71919,-0.71919,-0.71919,-0.71919,-0.71919,-0.71919,-0.71919,-0.71919,-0.71919,-0.71919,-0.71919,-0.71919,-0.7192,-0.7192,-0.7192,-0.7192,-0.7192,-0.7192,-0.7192,-0.7192,-0.7192,-0.7192,-0.7192,-0.7192,-0.7192,-0.7192,-0.7192,-0.7192,-0.7192,-0.71921,-0.71921,-0.71921,-0.71921,-0.71921,-0.71921,-0.71921,-0.71921,-0.71921,-0.71921,-0.71921,-0.71921,-0.71921,-0.71921,-0.71921,-0.71921,-0.71921,-0.71921
0.70499,0.70478,0.70478,0.70478,0.70478,0.70478,0.70478,0.70478,0.70478,0.70494,0.70494,0.70494,0.70494,0.70494,0.70494,0.70494,0.70494,0.70494,0.70494,0.70509,0.70509,0.70509,0.70509,0.70509,0.70509,0.70509,0.70509,0.70509,0.70509,0.70509,0.70525,0.70525,0.70525,0.70525,0.70525,0.70525,0.70525,0.70525,0.70525,0.70525,0.7054,0.7054,0.7054,0.7054,0.7054,0.7054,0.7054,0.7054,0.7054,0.7054,0.70556,0.70556,0.70556,0.70556,0.70556,0.70556,0.70556,0.70556,0.70556,0.70534,0.70534,0.7055,0.7055,0.7055,0.7055,0.7055,0.7055,0.7055,0.7055,0.7055,0.7055,0.70565,0.70566,0.70566,0.70566,0.70566,0.70566,0.70566,0.70566,0.70566,0.70566,0.70566,0.70581,0.70581,0.70581,0.70581,0.70581,0.70581,0.70581,0.70581,0.70581,0.70581,0.70566,0.7055,0.7055,0.70556,0.7054,0.70525,0.70509,0.70494,0.70478,0.70484,0.70469,0.70453,0.70453,0.70438,0.70422,0.70428,0.70413,0.70397,0.70382,0.70366,0.7035,0.70357,0.70357,0.70341,0.70325,0.7031,0.70294,0.703,0.70285,0.70269,0.70254,0.70238,0.70238,0.70244,0.70119,0.54897,-0.56699,-0.71692,-0.71812,-0.71812,-0.71812,-0.71812,-0.71812,-0.71812,-0.71812,-0.71893,-0.71893,-0.71834,-0.71834,-0.71834,-0.71834,-0.71834,-0.71834,-0.71834,-0.71834,-0.71834,-0.71834,-0.71834,-0.71915,-0.71915,-0.71915,-0.71915,-0.71915,-0.71915,-0.71915,-0.71915,-0.71915,-0.71915,-0.71915,-0.71915,-0.71915,-0.71915,-0.71996,-0.71996,-0.71996,-0.71996,-0.71997,-0.71997,-0.71997,-0.71997,-0.71916,-0.71916,-0.71916,-0.71916,-0.71916,-0.71916,-0.71916,-0.71916,-0.71916,-0.71917,-0.71917,-0.71917,-0.71917,-0.71917,-0.71917,-0.71917,-0.71917,-0.71917,-0.71917,-0.71917,-0.71917,-0.71917,-0.71917,-0.71918,-0.71918,-0.71918,-0.71918,-0.71918,-0.71918,-0.71918,-0.71918,-0.71918,-0.71918,-0.71918,-0.71918,-0.71918,-0.71919,-0.71919,-0.71919,-0.71919,-0.71919,-0.71919,-0.71919,-0.71919,-0.71919,-0.71919,-0.71919,-0.71919,-0.71919,-0.7192,-0.7192,-0.7192,-0.7192,-0.7192,-0.7192,-0.7192,-0.7192,-0.7192,-0.7192,-0.7192,-0.7192,-0.7192,-0.7192,-0.7192,-0.7192,-0.7192,-0.7192,-0.71921,-0.71921,-0.71921,-0.71921,-0.71921,-0.71921,-0.71921,-0.71921,-0.71921,-0.71921,-0.71921,-0.71921,-0.71921,-0.71921,-0.71921,-0.71921,-0.71921
0.70478,0.70478,0.70478,0.70478,0.70478,0.70478,0.70494,0.70494,0.70494,0.70494,0.70494,0.70494,0.70494,0.70494,0.70494,0.70494,0.70509,0.70509,0.70509,0.70509,0.70509,0.70509,0.70509,0.70509,0.70509,0.70509,0.70509,0.70525,0.70525,0.70525,0.70525,0.70525,0.70525,0.70525,0.70525,0.70525,0.70525,0.7054,0.7054,0.7054,0.7054,0.7054,0.7054,0.7054,0.7054,0.7054,0.7054,0.70556,0.70556,0.70556,0.70556,0.70556,0.70556,0.70556,0.70556,0.70534,0.70534,0.70534,0.7055,0.7055,0.7055,0.7055,0.7055,0.7055,0.7055,0.7055,0.7055,0.7055,0.70565,0.70565,0.70565,0.70565,0.70565,0.70565,0.70566,0.70566,0.70566,0.70566,0.70581,0.70581,0.70581,0.70581,0.70581,0.70581,0.70581,0.70581,0.70581,0.70581,0.70581,0.70596,0.70596,0.70581,0.70566,0.7055,0.70535,0.7054,0.7054,0.70525,0.70509,0.70494,0.70478,0.70484,0.70469,0.70453,0.70438,0.70422,0.70422,0.70428,0.70413,0.70397,0.70382,0.70366,0.7035,0.70357,0.70341,0.70325,0.70325,0.7031,0.70294,0.703,0.70285,0.70269,0.70254,0.70238,0.70222,0.70229,0.70119,0.54897,-0.56797,-0.71692,-0.71812,-0.71812,-0.71812,-0.71812,-0.71812,-0.71812,-0.71812,-0.71893,-0.71893,-0.71834,-0.71834,-0.71834,-0.71834,-0.71834,-0.71834,-0.71834,-0.71834,-0.71834,-0.71834,-0.71834,-0.71915,-0.71915,-0.71915,-0.71915,-0.71915,-0.71915,-0.71915,-0.71915,-0.71915,-0.71915,-0.71915,-0.71915,-0.71915,-0.71915,-0.71996,-0.71996,-0.71996,-0.71996,-0.71997,-0.71997,-0.71997,-0.71997,-0.71997,-0.71997,-0.71916,-0.71916,-0.71916,-0.71916,-0.71916,-0.71916,-0.71916,-0.71916,-0.71917,-0.71917,-0.71917,-0.71917,-0.71917,-0.71917,-0.71917,-0.71917,-0.71917,-0.71917,-0.71917,-0.71917,-0.71917,-0.71918,-0.71918,-0.71918,-0.71918,-0.71918,-0.71918,-0.71918,-0.71918,-0.71918,-0.71918,-0.71918,-0.71918,-0.71918,-0.71919,-0.71919,-0.71919,-0.71919,-0.71919,-0.71919,-0.71919,-0.71919,-0.71919,-0.71919,-0.71919,-0.71919,-0.71919,-0.7192,-0.7192,-0.7192,-0.7192,-0.7192,-0.7192,-0.7192,-0.7192,-0.7192,-0.7192,-0.7192,-0.7192,-0.7192,-0.7192,-0.7192,-0.7192,-0.7192,-0.7192,-0.71921,-0.71921,-0.71921,-0.71921,-0.71921,-0.71921,-0.71921,-0.71921,-0.71921,-0.71921,-0.71921,-0.71921,-0.71921,-0.71921,-0.71921,-0.71921,-0.71921
0.70478,0.70478,0.70478,0.70494,0.70494,0.70494,0.70494,0.70494,0.70494,0.70494,0.70494,0.70494,0.70494,0.70509,0.70509,0.70509,0.70509,0.70509,0.70509,0.70509,0.70509,0.70509,0.70509,0.70525,0.70525,0.70525,0.70525,0.70525,0.70525,0.70525,0.70525,0.70525,0.70525,0.70525,0.7054,0.7054,0.7054,0.7054,0.7054,0.7054,0.7054,0.7054,0.7054,0.7054,0.70556,0.70556,0.70556,0.70556,0.70556,0.70556,0.70556,0.70556,0.70534,0.70534,0.70534,0.7055,0.7055,0.7055,0.7055,0.7055,0.7055,0.7055,0.7055,0.7055,0.7055,0.70565,0.70565,0.70565,0.70565,0.70565,0.70565,0.70565,0.70565,0.70565,0.70565,0.70581,0.70581,0.70581,0.70581,0.70581,0.70581,0.70581,0.70581,0.70581,0.70581,0.70581,0.70596,0.70596,0.70596,0.70596,0.70596,0.70581,0.70566,0.7055,0.70556,0.7054,0.70525,0.70509,0.70509,0.70494,0.705,0.70484,0.70469,0.70453,0.70438,0.70422,0.70407,0.70413,0.70413,0.70397,0.70382,0.70366,0.7035,0.70357,0.70341,0.70325,0.7031,0.70294,0.70294,0.703,0.70285,0.70269,0.70254,0.70238,0.70222,0.70229,0.70119,0.54999,-0.56796,-0.71692,-0.71812,-0.71812,-0.71812,-0.71812,-0.71812,-0.71812,-0.71812,-0.71893,-0.71893,-0.71893,-0.71834,-0.71834,-0.71834,-0.71834,-0.71834,-0.71834,-0.71834,-0.71834,-0.71834,-0.71834,-0.71834,-0.71915,-0.71915,-0.71915,-0.71915,-0.71915,-0.71915,-0.71915,-0.71915,-0.71915,-0.71915,-0.71915,-0.71915,-0.71915,-0.71996,-0.71996,-0.71996,-0.71996,-0.71996,-0.71997,-0.71997,-0.71997,-0.71997,-0.71997,-0.71997,-0.71997,-0.71997,-0.71916,-0.71916,-0.71916,-0.71916,-0.71916,-0.71917,-0.71917,-0.71917,-0.71917,-0.71917,-0.71917,-0.71917,-0.71917,-0.71917,-0.71917,-0.71917,-0.71917,-0.71917,-0.71918,-0.71918,-0.71918,-0.71918,-0.71918,-0.71918,-0.71918,-0.71918,-0.71918,-0.71918,-0.71918,-0.71918,-0.71918,-0.71918,-0.71919,-0.71919,-0.71919,-0.71919,-0.71919,-0.71919,-0.71919,-0.71919,-0.71919,-0.71919,-0.71919,-0.71919,-0.71919,-0.7192,-0.7192,-0.7192,-0.7192,-0.7192,-0.7192,-0.7192,-0.7192,-0.7192,-0.7192,-0.7192,-0.7192,-0.7192,-0.7192,-0.7192,-0.7192,-0.7192,-0.7192,-0.71921,-0.71921,-0.71921,-0.71921,-0.71921,-0.71921,-0.71921,-0.71921,-0.71921,-0.71921,-0.71921,-0.71921,-0.71921,-0.71921,-0.71921,-0.71921
0.70493,0.70493,0.70493,0.70493,0.70493,0.70494,0.70494,0.70494,0.70494,0.70494,0.70509,0.70509,0.70509,0.70509,0.70509,0.70509,0.70509,0.70509,0.70509,0.70509,0.70525,0.70525,0.70525,0.70525,0.70525,0.70525,0.70525,0.70525,0.70525,0.70525,0.70525,0.7054,0.7054,0.7054,0.7054,0.7054,0.7054,0.7054,0.7054,0.7054,0.7054,0.70556,0.70556,0.70556,0.70556,0.70556,0.70556,0.70556,0.70556,0.70534,0.70534,0.70534,0.7055,0.7055,0.7055,0.7055,0.7055,0.7055,0.7055,0.7055,0.7055,0.7055,0.70565,0.70565,0.70565,0.70565,0.70565,0.70565,0.70565,0.70565,0.70565,0.70565,0.70581,0.70581,0.70581,0.70581,0.70581,0.70581,0.70581,0.70581,0.70581,0.70581,0.70581,0.70596,0.70596,0.70596,0.70596,0.70596,0.70596,0.70596,0.70581,0.70581,0.70566,0.7055,0.70556,0.7054,0.70525,0.70509,0.70494,0.70478,0.705,0.70484,0.70469,0.70453,0.70438,0.70422,0.70428,0.70413,0.70397,0.70382,0.70382,0.70366,0.70372,0.70357,0.70341,0.70325,0.7031,0.70294,0.70279,0.70285,0.70285,0.70269,0.70254,0.70238,0.70222,0.70229,0.70119,0.54846,-0.56894,-0.71692,-0.71812,-0.71812,-0.71812,-0.71812,-0.71812,-0.71812,-0.71812,-0.71893,-0.71893,-0.71893,-0.71834,-0.71834,-0.71834,-0.71834,-0.71834,-0.71834,-0.71834,-0.71834,-0.71834,-0.71834,-0.71834,-0.71915,-0.71915,-0.71915,-0.71915,-0.71915,-0.71915,-0.71915,-0.71915,-0.71915,-0.71915,-0.71915,-0.71915,-0.71915,-0.71996,-0.71996,-0.71996,-0.71996,-0.71996,-0.71997,-0.71997,-0.71997,-0.71997,-0.71997,-0.71997,-0.71997,-0.71997,-0.71997,-0.71997,-0.71916,-0.71916,-0.71916,-0.71917,-0.71917,-0.71917,-0.71917,-0.71917,-0.71917,-0.71917,-0.71917,-0.71917,-0.71917,-0.71917,-0.71917,-0.71917,-0.71917,-0.71918,-0.71918,-0.71918,-0.71918,-0.71918,-0.71918,-0.71918,-0.71918,-0.71918,-0.71918,-0.71918,-0.71918,-0.71918,-0.71919,-0.71919,-0.71919,-0.71919,-0.71919,-0.71919,-0.71919,-0.71919,-0.71919,-0.71919,-0.71919,-0.71919,-0.71919,-0.7192,-0.7192,-0.7192,-0.7192,-0.7192,-0.7192,-0.7192,-0.7192,-0.7192,-0.7192,-0.7192,-0.7192,-0.7192,-0.7192,-0.7192,-0.7192,-0.7192,-0.7192,-0.71921,-0.71921,-0.71921,-0.71921,-0.71921,-0.71921,-0.71921,-0.71921,-0.71921,-0.71921,-0.71921,-0.71921,-0.71921,-0.71921,-0.71921,-0.71921
0.70493,0.70493,0.70493,0.70493,0.70493,0.70493,0.70493,0.70509,0.70509,0.70509,0.70509,0.70509,0.70509,0.70509,0.70509,0.70509,0.70509,0.70525,0.70525,0.70525,0.70525,0.70525,0.70525,0.70525,0.70525,0.70525,0.70525,0.70525,0.7054,0.7054,0.7054,0.7054,0.7054,0.7054,0.7054,0.7054,0.7054,0.7054,0.70556,0.70556,0.70556,0.70556,0.70556,0.70556,0.70556,0.70556,0.70534,0.70534,0.7055,0.7055,0.7055,0.7055,0.7055,0.7055,0.7055,0.7055,0.7055,0.7055,0.7055,0.70565,0.70565,0.70565,0.70565,0.70565,0.70565,0.70565,0.70565,0.70565,0.70565,0.70581,0.70581,0.70581,0.70581,0.70581,0.70581,0.70581,0.70581,0.70581,0.70581,0.70581,0.70596,0.70596,0.70596,0.70596,0.70596,0.70596,0.70596,0.70596,0.70596,0.70596,0.70581,0.70566,0.70566,0.7055,0.70556,0.7054,0.70525,0.70509,0.70494,0.70478,0.70484,0.70469,0.70469,0.70453,0.70438,0.70422,0.70428,0.70413,0.70397,0.70382,0.70366,0.7035,0.70372,0.70357,0.70341,0.70325,0.7031,0.70294,0.703,0.70285,0.70269,0.70254,0.70254,0.70238,0.70244,0.70229,0.70103,0.54897,-0.56797,-0.71692,-0.71812,-0.71812,-0.71812,-0.71812,-0.71812,-0.71812,-0.71812,-0.71812,-0.71893,-0.71893,-0.71834,-0.71834,-0.71834,-0.71834,-0.71834,-0.71834,-0.71834,-0.71834,-0.71834,-0.71834,-0.71834,-0.71915,-0.71915,-0.71915,-0.71915,-0.71915,-0.71915,-0.71915,-0.71915,-0.71915,-0.71915,-0.71915,-0.71915,-0.71915,-0.71915,-0.71996,-0.71996,-0.71996,-0.71996,-0.71997,-0.71997,-0.71997,-0.71997,-0.71997,-0.71997,-0.71997,-0.71997,-0.71997,-0.71997,-0.71997,-0.71997,-0.71916,-0.71916,-0.71917,-0.71917,-0.71917,-0.71917,-0.71917,-0.71917,-0.71917,-0.71917,-0.71917,-0.71917,-0.71917,-0.71917,-0.71917,-0.71918,-0.71918,-0.71918,-0.71918,-0.71918,-0.71918,-0.71918,-0.71918,-0.71918,-0.71918,-0.71918,-0.71918,-0.71918,-0.71919,-0.71919,-0.71919,-0.71919,-0.71919,-0.71919,-0.71919,-0.71919,-0.71919,-0.71919,-0.71919,-0.71919,-0.71919,-0.71919,-0.7192,-0.7192,-0.7192,-0.7192,-0.7192,-0.7192,-0.7192,-0.7192,-0.7192,-0.7192,-0.7192,-0.7192,-0.7192,-0.7192,-0.7192,-0.7192,-0.7192,-0.71921,-0.71921,-0.71921,-0.71921,-0.71921,-0.71921,-0.71921,-0.71921,-0.71921,-0.71921,-0.71921,-0.71921,-0.71921,-0.71921,-0.71921,-0.71921
0.70493,0.70493,0.70493,0.70493,0.70509,0.70509,0.70509,0.70509,0.70509,0.70509,0.70509,0.70509,0.70509,0.70509,0.70525,0.70525,0.70525,0.70525,0.70525,0.70525,0.70525,0.70525,0.70525,0.70525,0.70525,0.7054,0.7054,0.7054,0.7054,0.7054,0.7054,0.7054,0.7054,0.7054,0.7054,0.70556,0.70556,0.70556,0.70556,0.70556,0.70556,0.70556,0.70556,0.70534,0.70534,0.7055,0.7055,0.7055,0.7055,0.7055,0.7055,0.7055,0.7055,0.7055,0.7055,0.7055,0.70565,0.70565,0.70565,0.70565,0.70565,0.70565,0.70565,0.70565,0.70565,0.70565,0.70581,0.70581,0.70581,0.70581,0.70581,0.70581,0.70581,0.70581,0.70581,0.70581,0.70596,0.70596,0.70596,0.70596,0.70596,0.70596,0.70596,0.70596,0.70596,0.70596,0.70596,0.70612,0.70612,0.70596,0.70581,0.70566,0.7055,0.70535,0.70556,0.7054,0.70525,0.70509,0.70494,0.70478,0.70484,0.70469,0.70453,0.70438,0.70438,0.70422,0.70428,0.70413,0.70397,0.70382,0.70366,0.7035,0.70357,0.70341,0.70341,0.70325,0.7031,0.70294,0.703,0.70285,0.70269,0.70254,0.70238,0.70222,0.70244,0.70229,0.70103,0.54897,-0.56797,-0.71692,-0.71812,-0.71812,-0.71812,-0.71812,-0.71812,-0.71812,-0.71812,-0.71812,-0.71893,-0.71893,-0.71834,-0.71834,-0.71834,-0.71834,-0.71834,-0.71834,-0.71834,-0.71834,-0.71834,-0.71834,-0.71834,-0.71915,-0.71915,-0.71915,-0.71915,-0.71915,-0.71915,-0.71915,-0.71915,-0.71915,-0.71915,-0.71915,-0.71915,-0.71915,-0.71915,-0.71996,-0.71996,-0.71996,-0.71996,-0.71996,-0.71997,-0.71997,-0.71997,-0.71997,-0.71997,-0.71997,-0.71997,-0.71997,-0.71997,-0.71997,-0.71997,-0.71997,-0.71997,-0.71917,-0.71917,-0.71917,-0.71917,-0.71917,-0.71917,-0.71917,-0.71917,-0.71917,-0.71917,-0.71917,-0.71917,-0.71917,-0.71918,-0.71918,-0.71918,-0.71918,-0.71918,-0.71918,-0.71918,-0.71918,-0.71918,-0.71918,-0.71918,-0.71918,-0.71918,-0.71918,-0.71919,-0.71919,-0.71919,-0.71919,-0.71919,-0.71919,-0.71919,-0.71919,-0.71919,-0.71919,-0.71919,-0.71919,-0.71919,-0.7192,-0.7192,-0.7192,-0.7192,-0.7192,-0.7192,-0.7192,-0.7192,-0.7192,-0.7192,-0.7192,-0.7192,-0.7192,-0.7192,-0.7192,-0.7192,-0.7192,-0.7192,-0.71921,-0.71921,-0.71921,-0.71921,-0.71921,-0.71921,-0.71921,-0.71921,-0.71921,-0.71921,-0.71921,-0.71921,-0.71921,-0.71921,-0.71921
0.70493,0.70509,0.70509,0.70509,0.70509,0.70509,0.70509,0.70509,0.70509,0.70509,0.70509,0.70524,0.70525,0.70525,0.70525,0.70525,0.70525,0.70525,0.70525,0.70525,0.70525,0.70525,0.7054,0.7054,0.7054,0.7054,0.7054,0.7054,0.7054,0.7054,0.7054,0.7054,0.70556,0.70556,0.70556,0.70556,0.70556,0.70556,0.70556,0.70556,0.70534,0.70534,0.7055,0.7055,0.7055,0.7055,0.7055,0.7055,0.7055,0.7055,0.7055,0.7055,0.7055,0.70565,0.70565,0.70565,0.70565,0.70565,0.70565,0.70565,0.70565,0.70565,0.70565,0.70581,0.70581,0.70581,0.70581,0.70581,0.70581,0.70581,0.70581,0.70581,0.70581,0.70596,0.70596,0.70596,0.70596,0.70596,0.70596,0.70596,0.70596,0.70596,0.70596,0.70596,0.70612,0.70612,0.70612,0.70612,0.70612,0.70596,0.70581,0.70566,0.7055,0.70556,0.7054,0.70525,0.70525,0.70509,0.70494,0.70478,0.70484,0.70469,0.70453,0.70438,0.70422,0.70407,0.70428,0.70413,0.70397,0.70382,0.70366,0.7035,0.70357,0.70341,0.70325,0.7031,0.7031,0.70294,0.703,0.70285,0.70269,0.70254,0.70238,0.70222,0.70229,0.70213,0.70103,0.54897,-0.56678,-0.71692,-0.71812,-0.71812,-0.71812,-0.71812,-0.71812,-0.71812,-0.71812,-0.71812,-0.71893,-0.71893,-0.71834,-0.71834,-0.71834,-0.71834,-0.71834,-0.71834,-0.71834,-0.71834,-0.71834,-0.71834,-0.71834,-0.71834,-0.71915,-0.71915,-0.71915,-0.71915,-0.71915,-0.71915,-0.71915,-0.71915,-0.71915,-0.71915,-0.71915,-0.71915,-0.71915,-0.71996,-0.71996,-0.71996,-0.71996,-0.71996,-0.71997,-0.71997,-0.71997,-0.71997,-0.71997,-0.71997,-0.71997,-0.71997,-0.71997,-0.71997,-0.71997,-0.71997,-0.71997,-0.71997,-0.71998,-0.71998,-0.71917,-0.71917,-0.71917,-0.71917,-0.71917,-0.71917,-0.71917,-0.71917,-0.71917,-0.71917,-0.71917,-0.71918,-0.71918,-0.71918,-0.71918,-0.71918,-0.71918,-0.71918,-0.71918,-0.71918,-0.71918,-0.71918,-0.71918,-0.71918,-0.71919,-0.71919,-0.71919,-0.71919,-0.71919,-0.71919,-0.71919,-0.71919,-0.71919,-0.71919,-0.71919,-0.71919,-0.71919,-0.7192,-0.7192,-0.7192,-0.7192,-0.7192,-0.7192,-0.7192,-0.7192,-0.7192,-0.7192,-0.7192,-0.7192,-0.7192,-0.7192,-0.7192,-0.7192,-0.7192,-0.7192,-0.71921,-0.71921,-0.71921,-0.71921,-0.71921,-0.71921,-0.71921,-0.71921,-0.71921,-0.71921,-0.71921,-0.71921,-0.71921,-0.71921,-0.71921
0.70509,0.70509,0.70509,0.70509,0.70509,0.70509,0.70509,0.70509,0.70524,0.70524,0.70524,0.70524,0.70524,0.70524,0.70525,0.70525,0.70525,0.70525,0.7054,0.7054,0.7054,0.7054,0.7054,0.7054,0.7054,0.7054,0.7054,0.7054,0.7054,0.70556,0.70556,0.70556,0.70556,0.70556,0.70556,0.70556,0.70556,0.70534,0.70534,0.7055,0.7055,0.7055,0.7055,0.7055,0.7055,0.7055,0.7055,0.7055,0.7055,0.7055,0.70565,0.70565,0.70565,0.70565,0.70565,0.70565,0.70565,0.70565,0.70565,0.70565,0.70581,0.70581,0.70581,0.70581,0.70581,0.70581,0.70581,0.70581,0.70581,0.70581,0.70596,0.70596,0.70596,0.70596,0.70596,0.70596,0.70596,0.70596,0.70596,0.70596,0.70596,0.70612,0.70612,0.70612,0.70612,0.70612,0.70612,0.70612,0.70596,0.70596,0.70581,0.70566,0.7055,0.70556,0.7054,0.70525,0.70509,0.70494,0.70494,0.705,0.70484,0.70469,0.70453,0.70438,0.70422,0.70428,0.70413,0.70397,0.70397,0.70382,0.70366,0.7035,0.70357,0.70341,0.70325,0.7031,0.70294,0.70279,0.703,0.70285,0.70269,0.70254,0.70238,0.70222,0.70229,0.70213,0.70103,0.54948,-0.56678,-0.71692,-0.71812,-0.71812,-0.71812,-0.71812,-0.71812,-0.71812,-0.71812,-0.71812,-0.71893,-0.71893,-0.71893,-0.71834,-0.71834,-0.71834,-0.71834,-0.71834,-0.71834,-0.71834,-0.71834,-0.71834,-0.71834,-0.71834,-0.71915,-0.71915,-0.71915,-0.71915,-0.71915,-0.71915,-0.71915,-0.71915,-0.71915,-0.71915,-0.71915,-0.71915,-0.71915,-0.71996,-0.71996,-0.71996,-0.71996,-0.71996,-0.71996,-0.71997,-0.71997,-0.71997,-0.71997,-0.71997,-0.71997,-0.71997,-0.71997,-0.71997,-0.71997,-0.71997,-0.71997,-0.71997,-0.71998,-0.71998,-0.71998,-0.71998,-0.71917,-0.71917,-0.71917,-0.71917,-0.71917,-0.71917,-0.71917,-0.71917,-0.71917,-0.71918,-0.71918,-0.71918,-0.71918,-0.71918,-0.71918,-0.71918,-0.71918,-0.71918,-0.71918,-0.71918,-0.71918,-0.71918,-0.71919,-0.71919,-0.71919,-0.71919,-0.71919,-0.71919,-0.71919,-0.71919,-0.71919,-0.71919,-0.71919,-0.71919,-0.71919,-0.71919,-0.7192,-0.7192,-0.7192,-0.7192,-0.7192,-0.7192,-0.7192,-0.7192,-0.7192,-0.7192,-0.7192,-0.7192,-0.7192,-0.7192,-0.7192,-0.7192,-0.7192,-0.71921,-0.71921,-0.71921,-0.71921,-0.71921,-0.71921,-0.71921,-0.71921,-0.71921,-0.71921,-0.71921,-0.71921,-0.71921,-0.71921,-0.71921
0.70509,0.70509,0.70509,0.70509,0.70509,0.70524,0.70524,0.70524,0.70524,0.70524,0.70524,0.70524,0.70524,0.70524,0.70524,0.7054,0.7054,0.7054,0.7054,0.7054,0.7054,0.7054,0.7054,0.7054,0.7054,0.7054,0.70556,0.70556,0.70556,0.70556,0.70556,0.70556,0.70556,0.70556,0.70534,0.70534,0.7055,0.7055,0.7055,0.7055,0.7055,0.7055,0.7055,0.7055,0.7055,0.7055,0.7055,0.70565,0.70565,0.70565,0.70565,0.70565,0.70565,0.70565,0.70565,0.70565,0.70565,0.70581,0.70581,0.70581,0.70581,0.70581,0.70581,0.70581,0.70581,0.70581,0.70581,0.70596,0.70596,0.70596,0.70596,0.70596,0.70596,0.70596,0.70596,0.70596,0.70596,0.70596,0.70612,0.70612,0.70612,0.70612,0.70612,0.70612,0.70612,0.70612,0.70612,0.70612,0.70596,0.70581,0.70581,0.70566,0.7055,0.70556,0.7054,0.70525,0.70509,0.70494,0.70478,0.70484,0.70484,0.70469,0.70453,0.70438,0.70422,0.70428,0.70413,0.70397,0.70382,0.70366,0.70366,0.70372,0.70357,0.70341,0.70325,0.7031,0.70294,0.703,0.70285,0.70269,0.70269,0.70254,0.70238,0.70222,0.70229,0.70213,0.70103,0.54948,-0.56679,-0.71692,-0.71812,-0.71812,-0.71812,-0.71812,-0.71812,-0.71812,-0.71812,-0.71812,-0.71812,-0.71893,-0.71893,-0.71834,-0.71834,-0.71834,-0.71834,-0.71834,-0.71834,-0.71834,-0.71834,-0.71834,-0.71834,-0.71834,-0.71915,-0.71915,-0.71915,-0.71915,-0.71915,-0.71915,-0.71915,-0.71915,-0.71915,-0.71915,-0.71915,-0.71915,-0.71915,-0.71996,-0.71996,-0.71996,-0.71996,-0.71996,-0.71996,-0.71997,-0.71997,-0.71997,-0.71997,-0.71997,-0.71997,-0.71997,-0.71997,-0.71997,-0.71997,-0.71997,-0.71997,-0.71997,-0.71998,-0.71998,-0.71998,-0.71998,-0.71998,-0.71998,-0.71917,-0.71917,-0.71917,-0.71917,-0.71917,-0.71917,-0.71917,-0.71917,-0.71918,-0.71918,-0.71918,-0.71918,-0.71918,-0.71918,-0.71918,-0.71918,-0.71918,-0.71918,-0.71918,-0.71918,-0.71918,-0.71919,-0.71919,-0.71919,-0.71919,-0.71919,-0.71919,-0.71919,-0.71919,-0.71919,-0.71919,-0.71919,-0.71919,-0.71919,-0.7192,-0.7192,-0.7192,-0.7192,-0.7192,-0.7192,-0.7192,-0.7192,-0.7192,-0.7192,-0.7192,-0.7192,-0.7192,-0.7192,-0.7192,-0.7192,-0.7192,-0.7192,-0.71921,-0.71921,-0.71921,-0.71921,-0.71921,-0.71921,-0.71921,-0.71921,-0.71921,-0.71921,-0.71921,-0.71921,-0.71921,-0.71921
0.70509,0.70509,0.70524,0.70524,0.70524,0.70524,0.70524,0.70524,0.70524,0.70524,0.70524,0.70524,0.7054,0.7054,0.7054,0.7054,0.7054,0.7054,0.7054,0.7054,0.7054,0.7054,0.7054,0.70556,0.70556,0.70556,0.70556,0.70556,0.70556,0.70556,0.70556,0.70534,0.70534,0.7055,0.7055,0.7055,0.7055,0.7055,0.7055,0.7055,0.7055,0.7055,0.7055,0.70565,0.70565,0.70565,0.70565,0.70565,0.70565,0.70565,0.70565,0.70565,0.70565,0.70565,0.70581,0.70581,0.70581,0.70581,0.70581,0.70581,0.70581,0.70581,0.70581,0.70581,0.70596,0.70596,0.70596,0.70596,0.70596,0.70596,0.70596,0.70596,0.70596,0.70596,0.70596,0.70612,0.70612,0.70612,0.70612,0.70612,0.70612,0.70612,0.70612,0.70612,0.70612,0.70627,0.70627,0.70612,0.70596,0.70581,0.70566,0.7055,0.7055,0.70556,0.7054,0.70525,0.70509,0.70494,0.70478,0.70484,0.70469,0.70453,0.70453,0.70438,0.70422,0.70428,0.70413,0.70397,0.70382,0.70366,0.7035,0.70357,0.70357,0.70341,0.70325,0.7031,0.70294,0.703,0.70285,0.70269,0.70254,0.70238,0.70238,0.70244,0.70229,0.70213,0.70103,0.54948,-0.56679,-0.71692,-0.71812,-0.71812,-0.71812,-0.71812,-0.71812,-0.71812,-0.71812,-0.71812,-0.71812,-0.71893,-0.71893,-0.71834,-0.71834,-0.71834,-0.71834,-0.71834,-0.71834,-0.71834,-0.71834,-0.71834,-0.71834,-0.71834,-0.71915,-0.71915,-0.71915,-0.71915,-0.71915,-0.71915,-0.71915,-0.71915,-0.71915,-0.71915,-0.71915,-0.71915,-0.71915,-0.71915,-0.71996,-0.71996,-0.71996,-0.71996,-0.71996,-0.71997,-0.71997,-0.71997,-0.71997,-0.71997,-0.71997,-0.71997,-0.71997,-0.71997,-0.71997,-0.71997,-0.71997,-0.71997,-0.71997,-0.71998,-0.71998,-0.71998,-0.71998,-0.71998,-0.71998,-0.71998,-0.71917,-0.71917,-0.71917,-0.71917,-0.71917,-0.71917,-0.71918,-0.71918,-0.71918,-0.71918,-0.71918,-0.71918,-0.71918,-0.71918,-0.71918,-0.71918,-0.71918,-0.71918,-0.71918,-0.71919,-0.71919,-0.71919,-0.71919,-0.71919,-0.71919,-0.71919,-0.71919,-0.71919,-0.71919,-0.71919,-0.71919,-0.71919,-0.71919,-0.7192,-0.7192,-0.7192,-0.7192,-0.7192,-0.7192,-0.7192,-0.7192,-0.7192,-0.7192,-0.7192,-0.7192,-0.7192,-0.7192,-0.7192,-0.7192,-0.7192,-0.71921,-0.71921,-0.71921,-0.71921,-0.71921,-0.71921,-0.71921,-0.71921,-0.71921,-0.71921,-0.71921,-0.71921,-0.71921,-0.71921
0.70524,0.70524,0.70524,0.70524,0.70524,0.70524,0.70524,0.70524,0.70524,0.7054,0.7054,0.7054,0.7054,0.7054,0.7054,0.7054,0.7054,0.7054,0.7054,0.7054,0.70556,0.70556,0.70556,0.70556,0.70556,0.70556,0.70556,0.70556,0.70534,0.70534,0.7055,0.7055,0.7055,0.7055,0.7055,0.7055,0.7055,0.7055,0.7055,0.7055,0.70565,0.70565,0.70565,0.70565,0.70565,0.70565,0.70565,0.70565,0.70565,0.70565,0.70565,0.70581,0.70581,0.70581,0.70581,0.70581,0.70581,0.70581,0.70581,0.70581,0.70581,0.70596,0.70596,0.70596,0.70596,0.70596,0.70596,0.70596,0.70596,0.70596,0.70596,0.70612,0.70612,0.70612,0.70612,0.70612,0.70612,0.70612,0.70612,0.70612,0.70612,0.70612,0.70627,0.70627,0.70627,0.70606,0.70627,0.70612,0.70596,0.70581,0.70566,0.7055,0.70535,0.7054,0.7054,0.70525,0.70509,0.70494,0.70478,0.70484,0.70469,0.70453,0.70438,0.70422,0.70422,0.70428,0.70413,0.70397,0.70382,0.70366,0.7035,0.70357,0.70341,0.70325,0.70325,0.7031,0.70294,0.703,0.70285,0.70269,0.70254,0.70238,0.70222,0.70229,0.70229,0.70213,0.70088,0.54846,-0.56581,-0.71693,-0.71812,-0.71812,-0.71812,-0.71812,-0.71812,-0.71812,-0.71812,-0.71812,-0.71812,-0.71893,-0.71893,-0.71834,-0.71834,-0.71834,-0.71834,-0.71834,-0.71834,-0.71834,-0.71834,-0.71834,-0.71834,-0.71834,-0.71834,-0.71915,-0.71915,-0.71915,-0.71915,-0.71915,-0.71915,-0.71915,-0.71915,-0.71915,-0.71915,-0.71915,-0.71915,-0.71915,-0.71996,-0.71996,-0.71996,-0.71996,-0.71996,-0.71996,-0.71997,-0.71997,-0.71997,-0.71997,-0.71997,-0.71997,-0.71997,-0.71997,-0.71997,-0.71997,-0.71997,-0.71997,-0.71997,-0.71998,-0.71998,-0.71998,-0.71998,-0.71998,-0.71998,-0.71998,-0.71998,-0.71998,-0.71998,-0.71917,-0.71917,-0.71917,-0.71918,-0.71918,-0.71918,-0.71918,-0.71918,-0.71918,-0.71918,-0.71918,-0.71918,-0.71918,-0.71918,-0.71918,-0.71918,-0.71918,-0.71919,-0.71919,-0.71919,-0.71919,-0.71919,-0.71919,-0.71919,-0.71919,-0.71919,-0.71919,-0.71919,-0.71919,-0.71919,-0.7192,-0.7192,-0.7192,-0.7192,-0.7192,-0.7192,-0.7192,-0.7192,-0.7192,-0.7192,-0.7192,-0.7192,-0.7192,-0.7192,-0.7192,-0.7192,-0.7192,-0.7192,-0.71921,-0.71921,-0.71921,-0.71921,-0.71921,-0.71921,-0.71921,-0.71921,-0.71921,-0.71921,-0.71921,-0.71921,-0.71921
0.70524,0.70524,0.70524,0.70524,0.70524,0.70524,0.7054,0.7054,0.7054,0.7054,0.7054,0.7054,0.7054,0.7054,0.7054,0.7054,0.7054,0.70555,0.70555,0.70555,0.70555,0.70555,0.70555,0.70556,0.70556,0.70534,0.70534,0.7055,0.7055,0.7055,0.7055,0.7055,0.7055,0.7055,0.7055,0.7055,0.7055,0.70565,0.70565,0.70565,0.70565,0.70565,0.70565,0.70565,0.70565,0.70565,0.70565,0.70565,0.70581,0.70581,0.70581,0.70581,0.70581,0.70581,0.70581,0.70581,0.70581,0.70581,0.70596,0.70596,0.70596,0.70596,0.70596,0.70596,0.70596,0.70596,0.70596,0.70596,0.70612,0.70612,0.70612,0.70612,0.70612,0.70612,0.70612,0.70612,0.70612,0.70612,0.70612,0.70627,0.70627,0.70627,0.70606,0.70606,0.70606,0.70606,0.70612,0.70612,0.70596,0.70581,0.70566,0.7055,0.70556,0.7054,0.70525,0.70509,0.70509,0.70494,0.705,0.70484,0.70469,0.70453,0.70438,0.70422,0.70407,0.70413,0.70413,0.70397,0.70382,0.70366,0.7035,0.70357,0.70341,0.70325,0.7031,0.70294,0.70294,0.703,0.70285,0.70269,0.70254,0.70238,0.70222,0.70229,0.70213,0.70197,0.70088,0.54948,-0.56679,-0.71693,-0.71812,-0.71812,-0.71812,-0.71812,-0.71812,-0.71812,-0.71812,-0.71812,-0.71812,-0.71893,-0.71893,-0.71893,-0.71834,-0.71834,-0.71834,-0.71834,-0.71834,-0.71834,-0.71834,-0.71834,-0.71834,-0.71834,-0.71834,-0.71915,-0.71915,-0.71915,-0.71915,-0.71915,-0.71915,-0.71915,-0.71915,-0.71915,-0.71915,-0.71915,-0.71915,-0.71915,-0.71996,-0.71996,-0.71996,-0.71996,-0.71996,-0.71996,-0.71997,-0.71997,-0.71997,-0.71997,-0.71997,-0.71997,-0.71997,-0.71997,-0.71997,-0.71997,-0.71997,-0.71997,-0.71997,-0.71998,-0.71998,-0.71998,-0.71998,-0.71998,-0.71998,-0.71998,-0.71998,-0.71998,-0.71998,-0.71998,-0.71998,-0.71917,-0.71917,-0.71918,-0.71918,-0.71918,-0.71918,-0.71918,-0.71918,-0.71918,-0.71918,-0.71918,-0.71918,-0.71918,-0.71918,-0.71918,-0.71919,-0.71919,-0.71919,-0.71919,-0.71919,-0.71919,-0.71919,-0.71919,-0.71919,-0.71919,-0.71919,-0.71919,-0.71919,-0.7192,-0.7192,-0.7192,-0.7192,-0.7192,-0.7192,-0.7192,-0.7192,-0.7192,-0.7192,-0.7192,-0.7192,-0.7192,-0.7192,-0.7192,-0.7192,-0.7192,-0.7192,-0.71921,-0.71921,-0.71921,-0.71921,-0.71921,-0.71921,-0.71921,-0.71921,-0.71921,-0.71921,-0.71921,-0.71921,-0.71921
0.70524,0.70524,0.70524,0.7054,0.7054,0.7054,0.7054,0.7054,0.7054,0.7054,0.7054,0.7054,0.7054,0.70555,0.70555,0.70555,0.70555,0.70555,0.70555,0.70555,0.70555,0.70555,0.70534,0.70534,0.7055,0.7055,0.7055,0.7055,0.7055,0.7055,0.7055,0.7055,0.7055,0.7055,0.70565,0.70565,0.70565,0.70565,0.70565,0.70565,0.70565,0.70565,0.70565,0.70565,0.70565,0.70581,0.70581,0.70581,0.70581,0.70581,0.70581,0.70581,0.70581,0.70581,0.70581,0.70596,0.70596,0.70596,0.70596,0.70596,0.70596,0.70596,0.70596,0.70596,0.70596,0.70612,0.70612,0.70612,0.70612,0.70612,0.70612,0.70612,0.70612,0.70612,0.70612,0.70612,0.70627,0.70627,0.70627,0.70606,0.70606,0.70606,0.70606,0.70606,0.70606,0.70606,0.70612,0.70596,0.70581,0.70581,0.70566,0.7055,0.70556,0.7054,0.70525,0.70509,0.70494,0.70478,0.705,0.70484,0.70469,0.70453,0.70438,0.70422,0.70428,0.70413,0.70397,0.70382,0.70382,0.70366,0.70372,0.70357,0.70341,0.70325,0.7031,0.70294,0.70279,0.70285,0.70285,0.70269,0.70254,0.70238,0.70222,0.70229,0.70213,0.70197,0.70088,0.54897,-0.56679,-0.71693,-0.71812,-0.71812,-0.71812,-0.71812,-0.71812,-0.71812,-0.71812,-0.71812,-0.71812,-0.71812,-0.71893,-0.71893,-0.71834,-0.71834,-0.71834,-0.71834,-0.71834,-0.71834,-0.71834,-0.71834,-0.71834,-0.71834,-0.71834,-0.71915,-0.71915,-0.71915,-0.71915,-0.71915,-0.71915,-0.71915,-0.71915,-0.71915,-0.71915,-0.71915,-0.71915,-0.71915,-0.71996,-0.71996,-0.71996,-0.71996,-0.71996,-0.71996,-0.71996,-0.71997,-0.71997,-0.71997,-0.71997,-0.71997,-0.71997,-0.71997,-0.71997,-0.71997,-0.71997,-0.71997,-0.71997,-0.71997,-0.71998,-0.71998,-0.71998,-0.71998,-0.71998,-0.71998,-0.71998,-0.71998,-0.71998,-0.71998,-0.71998,-0.71998,-0.71998,-0.71918,-0.71918,-0.71918,-0.71918,-0.71918,-0.71918,-0.71918,-0.71918,-0.71918,-0.71918,-0.71918,-0.71918,-0.71918,-0.71919,-0.71919,-0.71919,-0.71919,-0.71919,-0.71919,-0.71919,-0.71919,-0.71919,-0.71919,-0.71919,-0.71919,-0.71919,-0.71919,-0.7192,-0.7192,-0.7192,-0.7192,-0.7192,-0.7192,-0.7192,-0.7192,-0.7192,-0.7192,-0.7192,-0.7192,-0.7192,-0.7192,-0.7192,-0.7192,-0.7192,-0.71921,-0.71921,-0.71921,-0.71921,-0.71921,-0.71921,-0.71921,-0.71921,-0.71921,-0.71921,-0.71921,-0.71921,-0.71921
0.7054,0.7054,0.7054,0.7054,0.7054,0.7054,0.7054,0.7054,0.7054,0.7054,0.70555,0.70555,0.70555,0.70555,0.70555,0.70555,0.70555,0.70555,0.70534,0.70534,0.70534,0.7055,0.7055,0.7055,0.7055,0.7055,0.7055,0.7055,0.7055,0.7055,0.7055,0.70565,0.70565,0.70565,0.70565,0.70565,0.70565,0.70565,0.70565,0.70565,0.70565,0.70581,0.70581,0.70581,0.70581,0.70581,0.70581,0.70581,0.70581,0.70581,0.70581,0.70581,0.70596,0.70596,0.70596,0.70596,0.70596,0.70596,0.70596,0.70596,0.70596,0.70596,0.70612,0.70612,0.70612,0.70612,0.70612,0.70612,0.70612,0.70612,0.70612,0.70612,0.70612,0.70627,0.70627,0.70627,0.70606,0.70606,0.70606,0.70606,0.70606,0.70606,0.70606,0.70622,0.70622,0.70606,0.70612,0.70596,0.70581,0.70566,0.70566,0.7055,0.70556,0.7054,0.70525,0.70509,0.70494,0.70478,0.70484,0.70469,0.70469,0.70453,0.70438,0.70422,0.70428,0.70413,0.70397,0.70382,0.70366,0.7035,0.70372,0.70357,0.70341,0.70325,0.7031,0.70294,0.703,0.70285,0.70269,0.70254,0.70254,0.70238,0.70244,0.70229,0.70213,0.70197,0.70088,0.54846,-0.5658,-0.71693,-0.71812,-0.71812,-0.71812,-0.71812,-0.71812,-0.71812,-0.71812,-0.71812,-0.71812,-0.71812,-0.71893,-0.71893,-0.71834,-0.71834,-0.71834,-0.71834,-0.71834,-0.71834,-0.71834,-0.71834,-0.71834,-0.71834,-0.71834,-0.71915,-0.71915,-0.71915,-0.71915,-0.71915,-0.71915,-0.71915,-0.71915,-0.71915,-0.71915,-0.71915,-0.71915,-0.71915,-0.71915,-0.71996,-0.71996,-0.71996,-0.71996,-0.71996,-0.71996,-0.71997,-0.71997,-0.71997,-0.71997,-0.71997,-0.71997,-0.71997,-0.71997,-0.71997,-0.71997,-0.71997,-0.71997,-0.71997,-0.71998,-0.71998,-0.71998,-0.71998,-0.71998,-0.71998,-0.71998,-0.71998,-0.71998,-0.71998,-0.71998,-0.71998,-0.71998,-0.71999,-0.71999,-0.71918,-0.71918,-0.71918,-0.71918,-0.71918,-0.71918,-0.71918,-0.71918,-0.71918,-0.71918,-0.71918,-0.71918,-0.71919,-0.71919,-0.71919,-0.71919,-0.71919,-0.71919,-0.71919,-0.71919,-0.71919,-0.71919,-0.71919,-0.71919,-0.71919,-0.7192,-0.7192,-0.7192,-0.7192,-0.7192,-0.7192,-0.7192,-0.7192,-0.7192,-0.7192,-0.7192,-0.7192,-0.7192,-0.7192,-0.7192,-0.7192,-0.7192,-0.7192,-0.71921,-0.71921,-0.71921,-0.71921,-0.71921,-0.71921,-0.71921,-0.71921,-0.71921,-0.71921,-0.71921,-0.71921
0.7054,0.7054,0.7054,0.7054,0.7054,0.7054,0.7054,0.70555,0.70555,0.70555,0.70555,0.70555,0.70555,0.70555,0.70555,0.70534,0.70534,0.70534,0.7055,0.7055,0.7055,0.7055,0.7055,0.7055,0.7055,0.7055,0.7055,0.7055,0.70565,0.70565,0.70565,0.70565,0.70565,0.70565,0.70565,0.70565,0.70565,0.70565,0.70581,0.70581,0.70581,0.70581,0.70581,0.70581,0.70581,0.70581,0.70581,0.70581,0.70581,0.70596,0.70596,0.70596,0.70596,0.70596,0.70596,0.70596,0.70596,0.70596,0.70596,0.70612,0.70612,0.70612,0.70612,0.70612,0.70612,0.70612,0.70612,0.70612,0.70612,0.70627,0.70627,0.70627,0.70627,0.70606,0.70606,0.70606,0.70606,0.70606,0.70606,0.70606,0.70622,0.70622,0.70622,0.70622,0.70622,0.70627,0.70612,0.70596,0.70581,0.70566,0.7055,0.70535,0.70556,0.7054,0.70525,0.70509,0.70494,0.70478,0.70484,0.70469,0.70453,0.70438,0.70438,0.70422,0.70428,0.70413,0.70397,0.70382,0.70366,0.7035,0.70357,0.70341,0.70341,0.70325,0.7031,0.70294,0.703,0.70285,0.70269,0.70254,0.70238,0.70222,0.70244,0.70229,0.70213,0.70197,0.70072,0.54846,-0.56679,-0.71693,-0.71812,-0.71812,-0.71812,-0.71812,-0.71812,-0.71812,-0.71812,-0.71812,-0.71812,-0.71812,-0.71893,-0.71893,-0.71835,-0.71835,-0.71834,-0.71834,-0.71834,-0.71834,-0.71834,-0.71834,-0.71834,-0.71834,-0.71834,-0.71915,-0.71915,-0.71915,-0.71915,-0.71915,-0.71915,-0.71915,-0.71915,-0.71915,-0.71915,-0.71915,-0.71915,-0.71915,-0.71915,-0.71996,-0.71996,-0.71996,-0.71996,-0.71996,-0.71996,-0.71997,-0.71997,-0.71997,-0.71997,-0.71997,-0.71997,-0.71997,-0.71997,-0.71997,-0.71997,-0.71997,-0.71997,-0.71997,-0.71997,-0.71998,-0.71998,-0.71998,-0.71998,-0.71998,-0.71998,-0.71998,-0.71998,-0.71998,-0.71998,-0.71998,-0.71998,-0.71998,-0.71999,-0.71999,-0.71999,-0.71999,-0.71918,-0.71918,-0.71918,-0.71918,-0.71918,-0.71918,-0.71918,-0.71918,-0.71918,-0.71919,-0.71919,-0.71919,-0.71919,-0.71919,-0.71919,-0.71919,-0.71919,-0.71919,-0.71919,-0.71919,-0.71919,-0.71919,-0.7192,-0.7192,-0.7192,-0.7192,-0.7192,-0.7192,-0.7192,-0.7192,-0.7192,-0.7192,-0.7192,-0.7192,-0.7192,-0.7192,-0.7192,-0.7192,-0.7192,-0.7192,-0.71921,-0.71921,-0.71921,-0.71921,-0.71921,-0.71921,-0.71921,-0.71921,-0.71921,-0.71921,-0.71921,-0.71921
0.7054,0.7054,0.7054,0.7054,0.70555,0.70555,0.70555,0.70555,0.70555,0.70555,0.70555,0.70555,0.70534,0.70534,0.70534,0.7055,0.7055,0.7055,0.7055,0.7055,0.7055,0.7055,0.7055,0.7055,0.7055,0.70565,0.70565,0.70565,0.70565,0.70565,0.70565,0.70565,0.70565,0.70565,0.70565,0.70581,0.70581,0.70581,0.70581,0.70581,0.70581,0.70581,0.70581,0.70581,0.70581,0.70581,0.70596,0.70596,0.70596,0.70596,0.70596,0.70596,0.70596,0.70596,0.70596,0.70596,0.70612,0.70612,0.70612,0.70612,0.70612,0.70612,0.70612,0.70612,0.70612,0.70612,0.70627,0.70627,0.70627,0.70606,0.70606,0.70606,0.70606,0.70606,0.70606,0.70606,0.70606,0.70622,0.70622,0.70622,0.70622,0.70622,0.70622,0.70622,0.70606,0.70627,0.70612,0.70596,0.70581,0.70565,0.7055,0.70556,0.7054,0.70525,0.70525,0.70509,0.70494,0.70478,0.70484,0.70469,0.70453,0.70438,0.70422,0.70407,0.70428,0.70413,0.70397,0.70382,0.70366,0.7035,0.70357,0.70341,0.70325,0.7031,0.7031,0.70294,0.703,0.70285,0.70269,0.70254,0.70238,0.70222,0.70229,0.70213,0.70213,0.70197,0.70072,0.54897,-0.56679,-0.71693,-0.71812,-0.71812,-0.71812,-0.71812,-0.71812,-0.71812,-0.71812,-0.71812,-0.71812,-0.71812,-0.71893,-0.71893,-0.71893,-0.71835,-0.71835,-0.71835,-0.71834,-0.71834,-0.71834,-0.71834,-0.71834,-0.71834,-0.71834,-0.71834,-0.71915,-0.71915,-0.71915,-0.71915,-0.71915,-0.71915,-0.71915,-0.71915,-0.71915,-0.71915,-0.71915,-0.71915,-0.71915,-0.71996,-0.71996,-0.71996,-0.71996,-0.71996,-0.71996,-0.71996,-0.71997,-0.71997,-0.71997,-0.71997,-0.71997,-0.71997,-0.71997,-0.71997,-0.71997,-0.71997,-0.71997,-0.71997,-0.71997,-0.71998,-0.71998,-0.71998,-0.71998,-0.71998,-0.71998,-0.71998,-0.71998,-0.71998,-0.71998,-0.71998,-0.71998,-0.71998,-0.71999,-0.71999,-0.71999,-0.71999,-0.71999,-0.71999,-0.71918,-0.71918,-0.71918,-0.71918,-0.71918,-0.71918,-0.71918,-0.71918,-0.71919,-0.71919,-0.71919,-0.71919,-0.71919,-0.71919,-0.71919,-0.71919,-0.71919,-0.71919,-0.71919,-0.71919,-0.71919,-0.7192,-0.7192,-0.7192,-0.7192,-0.7192,-0.7192,-0.7192,-0.7192,-0.7192,-0.7192,-0.7192,-0.7192,-0.7192,-0.7192,-0.7192,-0.7192,-0.7192,-0.7192,-0.71921,-0.71921,-0.71921,-0.71921,-0.71921,-0.71921,-0.71921,-0.71921,-0.71921,-0.71921,-0.71921
0.7054,0.70555,0.70555,0.70555,0.70555,0.70555,0.70555,0.70555,0.70555,0.70534,0.70534,0.7055,0.7055,0.7055,0.7055,0.7055,0.7055,0.7055,0.7055,0.7055,0.7055,0.7055,0.70565,0.70565,0.70565,0.70565,0.70565,0.70565,0.70565,0.70565,0.70565,0.70565,0.70581,0.70581,0.70581,0.70581,0.70581,0.70581,0.70581,0.70581,0.70581,0.70581,0.70581,0.70596,0.70596,0.70596,0.70596,0.70596,0.70596,0.70596,0.70596,0.70596,0.70596,0.70612,0.70612,0.70612,0.70612,0.70612,0.70612,0.70612,0.70612,0.70612,0.70612,0.70627,0.70627,0.70627,0.70606,0.70606,0.70606,0.70606,0.70606,0.70606,0.70606,0.70606,0.70622,0.70622,0.70622,0.70622,0.70622,0.70622,0.70622,0.70622,0.70622,0.70622,0.70606,0.70612,0.70596,0.70596,0.70581,0.70565,0.7055,0.70556,0.7054,0.70525,0.70509,0.70494,0.70494,0.705,0.70484,0.70469,0.70453,0.70438,0.70422,0.70428,0.70413,0.70397,0.70397,0.70382,0.70366,0.7035,0.70357,0.70341,0.70325,0.7031,0.70294,0.70279,0.703,0.70285,0.70269,0.70254,0.70238,0.70222,0.70229,0.70213,0.70197,0.70182,0.70072,0.54897,-0.56679,-0.71693,-0.71812,-0.71812,-0.71812,-0.71812,-0.71812,-0.71812,-0.71812,-0.71812,-0.71812,-0.71812,-0.71893,-0.71893,-0.71893,-0.71835,-0.71835,-0.71835,-0.71835,-0.71835,-0.71835,-0.71834,-0.71834,-0.71834,-0.71834,-0.71834,-0.71915,-0.71915,-0.71915,-0.71915,-0.71915,-0.71915,-0.71915,-0.71915,-0.71915,-0.71915,-0.71915,-0.71915,-0.71915,-0.71996,-0.71996,-0.71996,-0.71996,-0.71996,-0.71996,-0.71996,-0.71997,-0.71997,-0.71997,-0.71997,-0.71997,-0.71997,-0.71997,-0.71997,-0.71997,-0.71997,-0.71997,-0.71997,-0.71997,-0.71998,-0.71998,-0.71998,-0.71998,-0.71998,-0.71998,-0.71998,-0.71998,-0.71998,-0.71998,-0.71998,-0.71998,-0.71998,-0.71998,-0.71999,-0.71999,-0.71999,-0.71999,-0.71999,-0.71999,-0.71999,-0.71918,-0.71918,-0.71918,-0.71918,-0.71918,-0.71918,-0.71919,-0.71919,-0.71919,-0.71919,-0.71919,-0.71919,-0.71919,-0.71919,-0.71919,-0.71919,-0.71919,-0.71919,-0.71919,-0.7192,-0.7192,-0.7192,-0.7192,-0.7192,-0.7192,-0.7192,-0.7192,-0.7192,-0.7192,-0.7192,-0.7192,-0.7192,-0.7192,-0.7192,-0.7192,-0.7192,-0.7192,-0.71921,-0.71921,-0.71921,-0.71921,-0.71921,-0.71921,-0.71921,-0.71921,-0.71921,-0.71921,-0.71921
0.70555,0.70555,0.70555,0.70555,0.70555,0.70555,0.70534,0.70534,0.7055,0.7055,0.7055,0.7055,0.7055,0.7055,0.7055,0.7055,0.7055,0.7055,0.7055,0.70565,0.70565,0.70565,0.70565,0.70565,0.70565,0.70565,0.70565,0.70565,0.70565,0.70581,0.70581,0.70581,0.70581,0.70581,0.70581,0.70581,0.70581,0.70581,0.70581,0.70596,0.70596,0.70596,0.70596,0.70596,0.70596,0.70596,0.70596,0.70596,0.70596,0.70596,0.70612,0.70612,0.70612,0.70612,0.70612,0.70612,0.70612,0.70612,0.70612,0.70612,0.70627,0.70627,0.70627,0.70606,0.70606,0.70606,0.70606,0.70606,0.70606,0.70606,0.70606,0.70621,0.70622,0.70622,0.70622,0.70622,0.70622,0.70622,0.70622,0.70622,0.70622,0.70637,0.70637,0.70622,0.70606,0.70612,0.70596,0.70581,0.70565,0.70565,0.7055,0.70556,0.7054,0.70525,0.70509,0.70494,0.70478,0.70484,0.70484,0.70469,0.70453,0.70438,0.70422,0.70428,0.70413,0.70397,0.70382,0.70366,0.70366,0.70372,0.70357,0.70341,0.70325,0.7031,0.70294,0.703,0.70285,0.70269,0.70269,0.70254,0.70238,0.70222,0.70229,0.70213,0.70197,0.70182,0.70072,0.54795,-0.56679,-0.71693,-0.71812,-0.71812,-0.71812,-0.71812,-0.71812,-0.71812,-0.71812,-0.71812,-0.71812,-0.71812,-0.71812,-0.71893,-0.71893,-0.71835,-0.71835,-0.71835,-0.71835,-0.71835,-0.71835,-0.71835,-0.71835,-0.71835,-0.71834,-0.71834,-0.71915,-0.71915,-0.71915,-0.71915,-0.71915,-0.71915,-0.71915,-0.71915,-0.71915,-0.71915,-0.71915,-0.71915,-0.71915,-0.71915,-0.71996,-0.71996,-0.71996,-0.71996,-0.71996,-0.71996,-0.71997,-0.71997,-0.71997,-0.71997,-0.71997,-0.71997,-0.71997,-0.71997,-0.71997,-0.71997,-0.71997,-0.71997,-0.71997,-0.71997,-0.71998,-0.71998,-0.71998,-0.71998,-0.71998,-0.71998,-0.71998,-0.71998,-0.71998,-0.71998,-0.71998,-0.71998,-0.71998,-0.71999,-0.71999,-0.71999,-0.71999,-0.71999,-0.71999,-0.71999,-0.71999,-0.71999,-0.71918,-0.71918,-0.71918,-0.71918,-0.71919,-0.71919,-0.71919,-0.71919,-0.71919,-0.71919,-0.71919,-0.71919,-0.71919,-0.71919,-0.71919,-0.71919,-0.71919,-0.71919,-0.7192,-0.7192,-0.7192,-0.7192,-0.7192,-0.7192,-0.7192,-0.7192,-0.7192,-0.7192,-0.7192,-0.7192,-0.7192,-0.7192,-0.7192,-0.7192,-0.7192,-0.71921,-0.71921,-0.71921,-0.71921,-0.71921,-0.71921,-0.71921,-0.71921,-0.71921,-0.71921,-0.71921
0.70555,0.70555,0.70555,0.70534,0.70534,0.7055,0.7055,0.7055,0.7055,0.7055,0.7055,0.7055,0.7055,0.7055,0.7055,0.7055,0.70565,0.70565,0.70565,0.70565,0.70565,0.70565,0.70565,0.70565,0.70565,0.70565,0.70581,0.70581,0.70581,0.70581,0.70581,0.70581,0.70581,0.70581,0.70581,0.70581,0.70596,0.70596,0.70596,0.70596,0.70596,0.70596,0.70596,0.70596,0.70596,0.70596,0.70596,0.70612,0.70612,0.70612,0.70612,0.70612,0.70612,0.70612,0.70612,0.70612,0.70612,0.70627,0.70627,0.70627,0.70606,0.70606,0.70606,0.70606,0.70606,0.70606,0.70606,0.70606,0.70621,0.70621,0.70621,0.70621,0.70621,0.70621,0.70621,0.70622,0.70622,0.70622,0.70637,0.70637,0.70637,0.70637,0.70637,0.70622,0.70606,0.70612,0.70596,0.70581,0.70565,0.7055,0.70535,0.70556,0.7054,0.70525,0.70509,0.70494,0.70478,0.70484,0.70469,0.70453,0.70453,0.70438,0.70422,0.70428,0.70413,0.70397,0.70382,0.70366,0.7035,0.70357,0.70357,0.70341,0.70325,0.7031,0.70294,0.703,0.70285,0.70269,0.70254,0.70238,0.70238,0.70244,0.70229,0.70213,0.70197,0.70182,0.70072,0.54897,-0.56776,-0.71693,-0.71812,-0.71812,-0.71812,-0.71812,-0.71812,-0.71812,-0.71812,-0.71812,-0.71812,-0.71812,-0.71812,-0.71893,-0.71893,-0.71835,-0.71835,-0.71835,-0.71835,-0.71835,-0.71835,-0.71835,-0.71835,-0.71835,-0.71835,-0.71835,-0.71915,-0.71915,-0.71915,-0.71915,-0.71915,-0.71915,-0.71915,-0.71915,-0.71915,-0.71915,-0.71915,-0.71915,-0.71915,-0.71915,-0.71996,-0.71996,-0.71996,-0.71996,-0.71996,-0.71996,-0.71996,-0.71997,-0.71997,-0.71997,-0.71997,-0.71997,-0.71997,-0.71997,-0.71997,-0.71997,-0.71997,-0.71997,-0.71997,-0.71997,-0.71998,-0.71998,-0.71998,-0.71998,-0.71998,-0.71998,-0.71998,-0.71998,-0.71998,-0.71998,-0.71998,-0.71998,-0.71998,-0.71999,-0.71999,-0.71999,-0.71999,-0.71999,-0.71999,-0.71999,-0.71999,-0.71999,-0.71999,-0.71999,-0.71999,-0.71918,-0.71918,-0.71919,-0.71919,-0.71919,-0.71919,-0.71919,-0.71919,-0.71919,-0.71919,-0.71919,-0.71919,-0.71919,-0.71919,-0.71919,-0.7192,-0.7192,-0.7192,-0.7192,-0.7192,-0.7192,-0.7192,-0.7192,-0.7192,-0.7192,-0.7192,-0.7192,-0.7192,-0.7192,-0.7192,-0.7192,-0.7192,-0.7192,-0.71921,-0.71921,-0.71921,-0.71921,-0.71921,-0.71921,-0.71921,-0.71921,-0.71921,-0.71921
0.70534,0.70534,0.70549,0.70549,0.7055,0.7055,0.7055,0.7055,0.7055,0.7055,0.7055,0.7055,0.7055,0.70565,0.70565,0.70565,0.70565,0.70565,0.70565,0.70565,0.70565,0.70565,0.70565,0.70581,0.70581,0.70581,0.70581,0.70581,0.70581,0.70581,0.70581,0.70581,0.70581,0.70596,0.70596,0.70596,0.70596,0.70596,0.70596,0.70596,0.70596,0.70596,0.70596,0.70596,0.70612,0.70612,0.70612,0.70612,0.70612,0.70612,0.70612,0.70612,0.70612,0.70612,0.70627,0.70627,0.70627,0.70606,0.70606,0.70606,0.70606,0.70606,0.70606,0.70606,0.70621,0.70621,0.70621,0.70621,0.70621,0.70621,0.70621,0.70621,0.70621,0.70621,0.70621,0.70637,0.70637,0.70637,0.70637,0.70637,0.70637,0.70637,0.70622,0.70622,0.70627,0.70612,0.70596,0.70581,0.70565,0.7055,0.70556,0.7054,0.70525,0.70525,0.70509,0.70494,0.70478,0.70484,0.70469,0.70453,0.70438,0.70422,0.70422,0.70428,0.70413,0.70397,0.70382,0.70366,0.7035,0.70357,0.70341,0.70325,0.70325,0.7031,0.70294,0.703,0.70285,0.70269,0.70254,0.70238,0.70222,0.70229,0.70229,0.70213,0.70197,0.70182,0.70072,0.54948,-0.56678,-0.71693,-0.71812,-0.71812,-0.71812,-0.71812,-0.71812,-0.71812,-0.71812,-0.71812,-0.71812,-0.71812,-0.71812,-0.71893,-0.71893,-0.71893,-0.71835,-0.71835,-0.71835,-0.71835,-0.71835,-0.71835,-0.71835,-0.71835,-0.71835,-0.71835,-0.71835,-0.71916,-0.71916,-0.71915,-0.71915,-0.71915,-0.71915,-0.71915,-0.71915,-0.71915,-0.71915,-0.71915,-0.71915,-0.71915,-0.71996,-0.71996,-0.71996,-0.71996,-0.71996,-0.71996,-0.71996,-0.71997,-0.71997,-0.71997,-0.71997,-0.71997,-0.71997,-0.71997,-0.71997,-0.71997,-0.71997,-0.71997,-0.71997,-0.71997,-0.71998,-0.71998,-0.71998,-0.71998,-0.71998,-0.71998,-0.71998,-0.71998,-0.71998,-0.71998,-0.71998,-0.71998,-0.71998,-0.71998,-0.71999,-0.71999,-0.71999,-0.71999,-0.71999,-0.71999,-0.71999,-0.71999,-0.71999,-0.71999,-0.71999,-0.71999,-0.71999,-0.71919,-0.71919,-0.71919,-0.71919,-0.71919,-0.71919,-0.71919,-0.71919,-0.71919,-0.71919,-0.71919,-0.71919,-0.71919,-0.7192,-0.7192,-0.7192,-0.7192,-0.7192,-0.7192,-0.7192,-0.7192,-0.7192,-0.7192,-0.7192,-0.7192,-0.7192,-0.7192,-0.7192,-0.7192,-0.7192,-0.7192,-0.71921,-0.71921,-0.71921,-0.71921,-0.71921,-0.71921,-0.71921,-0.71921,-0.71921,-0.71921
0.70549,0.70549,0.70549,0.70549,0.70549,0.70549,0.7055,0.7055,0.7055,0.70565,0.70565,0.70565,0.70565,0.70565,0.70565,0.70565,0.70565,0.70565,0.70565,0.70565,0.70581,0.70581,0.70581,0.70581,0.70581,0.70581,0.70581,0.70581,0.70581,0.70581,0.70596,0.70596,0.70596,0.70596,0.70596,0.70596,0.70596,0.70596,0.70596,0.70596,0.70596,0.70611,0.70612,0.70612,0.70612,0.70612,0.70612,0.70612,0.70612,0.70612,0.70612,0.70627,0.70627,0.70627,0.70606,0.70606,0.70606,0.70606,0.70606,0.70606,0.70606,0.70621,0.70621,0.70621,0.70621,0.70621,0.70621,0.70621,0.70621,0.70621,0.70621,0.70621,0.70637,0.70637,0.70637,0.70637,0.70637,0.70637,0.70637,0.70637,0.70637,0.70637,0.70622,0.70606,0.70612,0.70612,0.70596,0.70581,0.70565,0.7055,0.70556,0.7054,0.70525,0.70509,0.70509,0.70494,0.705,0.70484,0.70469,0.70453,0.70438,0.70422,0.70407,0.70413,0.70413,0.70397,0.70382,0.70366,0.7035,0.70357,0.70341,0.70325,0.7031,0.70294,0.70294,0.703,0.70285,0.70269,0.70254,0.70238,0.70222,0.70229,0.70213,0.70197,0.70197,0.70182,0.70056,0.54948,-0.56776,-0.71693,-0.71812,-0.71812,-0.71812,-0.71812,-0.71812,-0.71812,-0.71812,-0.71812,-0.71812,-0.71812,-0.71812,-0.71893,-0.71893,-0.71893,-0.71835,-0.71835,-0.71835,-0.71835,-0.71835,-0.71835,-0.71835,-0.71835,-0.71835,-0.71835,-0.71835,-0.71916,-0.71916,-0.71916,-0.71916,-0.71916,-0.71915,-0.71915,-0.71915,-0.71915,-0.71915,-0.71915,-0.71915,-0.71915,-0.71996,-0.71996,-0.71996,-0.71996,-0.71996,-0.71996,-0.71996,-0.71996,-0.71997,-0.71997,-0.71997,-0.71997,-0.71997,-0.71997,-0.71997,-0.71997,-0.71997,-0.71997,-0.71997,-0.71997,-0.71997,-0.71998,-0.71998,-0.71998,-0.71998,-0.71998,-0.71998,-0.71998,-0.71998,-0.71998,-0.71998,-0.71998,-0.71998,-0.71998,-0.71999,-0.71999,-0.71999,-0.71999,-0.71999,-0.71999,-0.71999,-0.71999,-0.71999,-0.71999,-0.71999,-0.71999,-0.71999,-0.72,-0.72,-0.71919,-0.71919,-0.71919,-0.71919,-0.71919,-0.71919,-0.71919,-0.71919,-0.71919,-0.71919,-0.71919,-0.71919,-0.7192,-0.7192,-0.7192,-0.7192,-0.7192,-0.7192,-0.7192,-0.7192,-0.7192,-0.7192,-0.7192,-0.7192,-0.7192,-0.7192,-0.7192,-0.7192,-0.7192,-0.71921,-0.71921,-0.71921,-0.71921,-0.71921,-0.71921,-0.71921,-0.71921,-0.71921,-0.71921
0.70549,0.70549,0.70549,0.70549,0.70549,0.70549,0.70565,0.70565,0.70565,0.70565,0.70565,0.70565,0.70565,0.70565,0.70565,0.70565,0.70565,0.70581,0.70581,0.70581,0.70581,0.70581,0.70581,0.70581,0.70581,0.70581,0.70581,0.70596,0.70596,0.70596,0.70596,0.70596,0.70596,0.70596,0.70596,0.70596,0.70596,0.70596,0.70611,0.70611,0.70611,0.70611,0.70611,0.70611,0.70612,0.70612,0.70612,0.70612,0.70627,0.70627,0.70627,0.70606,0.70606,0.70606,0.70606,0.70606,0.70606,0.70606,0.70621,0.70621,0.70621,0.70621,0.70621,0.70621,0.70621,0.70621,0.70621,0.70621,0.70621,0.70637,0.70637,0.70637,0.70637,0.70637,0.70637,0.70637,0.70637,0.70637,0.70637,0.70652,0.70652,0.70637,0.70622,0.70606,0.70612,0.70596,0.70581,0.70581,0.70565,0.7055,0.70556,0.7054,0.70525,0.70509,0.70494,0.70478,0.70484,0.70484,0.70469,0.70453,0.70438,0.70422,0.70428,0.70413,0.70397,0.70382,0.70382,0.70366,0.70372,0.70357,0.70341,0.70325,0.7031,0.70294,0.70279,0.70285,0.70285,0.70269,0.70254,0.70238,0.70222,0.70229,0.70213,0.70197,0.70182,0.70166,0.70056,0.54795,-0.56777,-0.71693,-0.71812,-0.71812,-0.71812,-0.71812,-0.71812,-0.71812,-0.71812,-0.71812,-0.71812,-0.71812,-0.71812,-0.71812,-0.71893,-0.71893,-0.71835,-0.71835,-0.71835,-0.71835,-0.71835,-0.71835,-0.71835,-0.71835,-0.71835,-0.71835,-0.71835,-0.71916,-0.71916,-0.71916,-0.71916,-0.71916,-0.71916,-0.71916,-0.71915,-0.71915,-0.71915,-0.71915,-0.71915,-0.71915,-0.71996,-0.71996,-0.71996,-0.71996,-0.71996,-0.71996,-0.71996,-0.71996,-0.71997,-0.71997,-0.71997,-0.71997,-0.71997,-0.71997,-0.71997,-0.71997,-0.71997,-0.71997,-0.71997,-0.71997,-0.71997,-0.71998,-0.71998,-0.71998,-0.71998,-0.71998,-0.71998,-0.71998,-0.71998,-0.71998,-0.71998,-0.71998,-0.71998,-0.71998,-0.71998,-0.71999,-0.71999,-0.71999,-0.71999,-0.71999,-0.71999,-0.71999,-0.71999,-0.71999,-0.71999,-0.71999,-0.71999,-0.71999,-0.72,-0.72,-0.72,-0.71919,-0.71919,-0.71919,-0.71919,-0.71919,-0.71919,-0.71919,-0.71919,-0.71919,-0.71919,-0.7192,-0.7192,-0.7192,-0.7192,-0.7192,-0.7192,-0.7192,-0.7192,-0.7192,-0.7192,-0.7192,-0.7192,-0.7192,-0.7192,-0.7192,-0.7192,-0.7192,-0.7192,-0.71921,-0.71921,-0.71921,-0.71921,-0.71921,-0.71921,-0.71921,-0.71921,-0.71921
0.70549,0.70549,0.70549,0.70565,0.70565,0.70565,0.70565,0.70565,0.70565,0.70565,0.70565,0.70565,0.70565,0.70565,0.70581,0.70581,0.70581,0.70581,0.70581,0.70581,0.70581,0.70581,0.70581,0.70581,0.70596,0.70596,0.70596,0.70596,0.70596,0.70596,0.70596,0.70596,0.70596,0.70596,0.70611,0.70611,0.70611,0.70611,0.70611,0.70611,0.70611,0.70611,0.70611,0.70611,0.70611,0.70627,0.70627,0.70627,0.70606,0.70606,0.70606,0.70606,0.70606,0.70606,0.70606,0.70621,0.70621,0.70621,0.70621,0.70621,0.70621,0.70621,0.70621,0.70621,0.70621,0.70621,0.70637,0.70637,0.70637,0.70637,0.70637,0.70637,0.70637,0.70637,0.70637,0.70637,0.70652,0.70652,0.70652,0.70652,0.70652,0.70637,0.70622,0.70606,0.70612,0.70596,0.70581,0.70565,0.7055,0.7055,0.70556,0.7054,0.70525,0.70509,0.70494,0.70478,0.70484,0.70469,0.70469,0.70453,0.70438,0.70422,0.70428,0.70413,0.70397,0.70382,0.70366,0.7035,0.70372,0.70357,0.70341,0.70325,0.7031,0.70294,0.703,0.70285,0.70269,0.70254,0.70254,0.70238,0.70244,0.70229,0.70213,0.70197,0.70182,0.70166,0.70056,0.54795,-0.56776,-0.71693,-0.71812,-0.71812,-0.71812,-0.71812,-0.71812,-0.71812,-0.71812,-0.71812,-0.71812,-0.71812,-0.71812,-0.71812,-0.71893,-0.71893,-0.71835,-0.71835,-0.71835,-0.71835,-0.71835,-0.71835,-0.71835,-0.71835,-0.71835,-0.71835,-0.71835,-0.71916,-0.71916,-0.71916,-0.71916,-0.71916,-0.71916,-0.71916,-0.71916,-0.71916,-0.71916,-0.71915,-0.71915,-0.71915,-0.71915,-0.71996,-0.71996,-0.71996,-0.71996,-0.71996,-0.71996,-0.71996,-0.71997,-0.71997,-0.71997,-0.71997,-0.71997,-0.71997,-0.71997,-0.71997,-0.71997,-0.71997,-0.71997,-0.71997,-0.71997,-0.71997,-0.71998,-0.71998,-0.71998,-0.71998,-0.71998,-0.71998,-0.71998,-0.71998,-0.71998,-0.71998,-0.71998,-0.71998,-0.71998,-0.71999,-0.71999,-0.71999,-0.71999,-0.71999,-0.71999,-0.71999,-0.71999,-0.71999,-0.71999,-0.71999,-0.71999,-0.71999,-0.72,-0.72,-0.72,-0.72,-0.72,-0.72,-0.71919,-0.71919,-0.71919,-0.71919,-0.71919,-0.71919,-0.71919,-0.7192,-0.7192,-0.7192,-0.7192,-0.7192,-0.7192,-0.7192,-0.7192,-0.7192,-0.7192,-0.7192,-0.7192,-0.7192,-0.7192,-0.7192,-0.7192,-0.7192,-0.7192,-0.71921,-0.71921,-0.71921,-0.71921,-0.71921,-0.71921,-0.71921,-0.71921,-0.71921
0.70565,0.70565,0.70565,0.70565,0.70565,0.70565,0.70565,0.70565,0.70565,0.70565,0.70565,0.7058,0.70581,0.70581,0.70581,0.70581,0.70581,0.70581,0.70581,0.70581,0.70581,0.70596,0.70596,0.70596,0.70596,0.70596,0.70596,0.70596,0.70596,0.70596,0.70596,0.70611,0.70611,0.70611,0.70611,0.70611,0.70611,0.70611,0.70611,0.70611,0.70611,0.70611,0.70627,0.70627,0.70627,0.70606,0.70606,0.70606,0.70606,0.70606,0.70606,0.70606,0.70621,0.70621,0.70621,0.70621,0.70621,0.70621,0.70621,0.70621,0.70621,0.70621,0.70621,0.70637,0.70637,0.70637,0.70637,0.70637,0.70637,0.70637,0.70637,0.70637,0.70637,0.70652,0.70652,0.70652,0.70652,0.70652,0.70652,0.70652,0.70637,0.70637,0.70622,0.70627,0.70612,0.70596,0.70581,0.70565,0.7055,0.70534,0.7054,0.7054,0.70525,0.70509,0.70494,0.70478,0.70484,0.70469,0.70453,0.70438,0.70438,0.70422,0.70428,0.70413,0.70397,0.70382,0.70366,0.7035,0.70357,0.70341,0.70341,0.70325,0.7031,0.70294,0.703,0.70285,0.70269,0.70254,0.70238,0.70222,0.70244,0.70229,0.70213,0.70197,0.70182,0.70166,0.70056,0.54846,-0.56678,-0.71693,-0.71812,-0.71812,-0.71812,-0.71812,-0.71812,-0.71812,-0.71812,-0.71812,-0.71812,-0.71812,-0.71812,-0.71812,-0.71893,-0.71893,-0.71893,-0.71835,-0.71835,-0.71835,-0.71835,-0.71835,-0.71835,-0.71835,-0.71835,-0.71835,-0.71835,-0.71835,-0.71916,-0.71916,-0.71916,-0.71916,-0.71916,-0.71916,-0.71916,-0.71916,-0.71916,-0.71916,-0.71916,-0.71916,-0.71915,-0.71996,-0.71996,-0.71996,-0.71996,-0.71996,-0.71996,-0.71996,-0.71996,-0.71997,-0.71997,-0.71997,-0.71997,-0.71997,-0.71997,-0.71997,-0.71997,-0.71997,-0.71997,-0.71997,-0.71997,-0.71997,-0.71998,-0.71998,-0.71998,-0.71998,-0.71998,-0.71998,-0.71998,-0.71998,-0.71998,-0.71998,-0.71998,-0.71998,-0.71998,-0.71999,-0.71999,-0.71999,-0.71999,-0.71999,-0.71999,-0.71999,-0.71999,-0.71999,-0.71999,-0.71999,-0.71999,-0.71999,-0.71999,-0.72,-0.72,-0.72,-0.72,-0.72,-0.72,-0.72,-0.71919,-0.71919,-0.71919,-0.71919,-0.71919,-0.71919,-0.7192,-0.7192,-0.7192,-0.7192,-0.7192,-0.7192,-0.7192,-0.7192,-0.7192,-0.7192,-0.7192,-0.7192,-0.7192,-0.7192,-0.7192,-0.7192,-0.7192,-0.7192,-0.71921,-0.71921,-0.71921,-0.71921,-0.71921,-0.71921,-0.71921,-0.71921
0.70565,0.70565,0.70565,0.70565,0.70565,0.70565,0.70565,0.70565,0.7058,0.7058,0.7058,0.7058,0.7058,0.7058,0.70581,0.70581,0.70581,0.70581,0.70596,0.70596,0.70596,0.70596,0.70596,0.70596,0.70596,0.70596,0.70596,0.70596,0.70611,0.70611,0.70611,0.70611,0.70611,0.70611,0.70611,0.70611,0.70611,0.70611,0.70611,0.70627,0.70627,0.70627,0.70606,0.70606,0.70606,0.70606,0.70606,0.70606,0.70606,0.70621,0.70621,0.70621,0.70621,0.70621,0.70621,0.70621,0.70621,0.70621,0.70621,0.70637,0.70637,0.70637,0.70637,0.70637,0.70637,0.70637,0.70637,0.70637,0.70637,0.70637,0.70652,0.70652,0.70652,0.70652,0.70652,0.70652,0.70652,0.70652,0.70652,0.70652,0.70637,0.70621,0.70606,0.70627,0.70612,0.70596,0.70581,0.70565,0.7055,0.70556,0.7054,0.70525,0.70509,0.70509,0.70494,0.705,0.70484,0.70469,0.70453,0.70438,0.70422,0.70407,0.70428,0.70413,0.70397,0.70382,0.70366,0.7035,0.70357,0.70341,0.70325,0.7031,0.7031,0.70294,0.703,0.70285,0.70269,0.70254,0.70238,0.70222,0.70229,0.70213,0.70213,0.70197,0.70182,0.70166,0.70078,0.54796,-0.56777,-0.71693,-0.71812,-0.71812,-0.71812,-0.71812,-0.71812,-0.71812,-0.71812,-0.71812,-0.71812,-0.71812,-0.71812,-0.71812,-0.71893,-0.71893,-0.71893,-0.71835,-0.71835,-0.71835,-0.71835,-0.71835,-0.71835,-0.71835,-0.71835,-0.71835,-0.71835,-0.71835,-0.71916,-0.71916,-0.71916,-0.71916,-0.71916,-0.71916,-0.71916,-0.71916,-0.71916,-0.71916,-0.71916,-0.71916,-0.71916,-0.71997,-0.71997,-0.71996,-0.71996,-0.71996,-0.71996,-0.71996,-0.71996,-0.71997,-0.71997,-0.71997,-0.71997,-0.71997,-0.71997,-0.71997,-0.71997,-0.71997,-0.71997,-0.71997,-0.71997,-0.71997,-0.71998,-0.71998,-0.71998,-0.71998,-0.71998,-0.71998,-0.71998,-0.71998,-0.71998,-0.71998,-0.71998,-0.71998,-0.71998,-0.71998,-0.71999,-0.71999,-0.71999,-0.71999,-0.71999,-0.71999,-0.71999,-0.71999,-0.71999,-0.71999,-0.71999,-0.71999,-0.71999,-0.72,-0.72,-0.72,-0.72,-0.72,-0.72,-0.72,-0.72,-0.72,-0.71919,-0.71919,-0.71919,-0.71919,-0.7192,-0.7192,-0.7192,-0.7192,-0.7192,-0.7192,-0.7192,-0.7192,-0.7192,-0.7192,-0.7192,-0.7192,-0.7192,-0.7192,-0.7192,-0.7192,-0.7192,-0.7192,-0.71921,-0.71921,-0.71921,-0.71921,-0.71921,-0.71921,-0.71921,-0.71921
0.70565,0.70565,0.70565,0.70565,0.7058,0.7058,0.7058,0.7058,0.7058,0.7058,0.7058,0.7058,0.7058,0.7058,0.7058,0.70596,0.70596,0.70596,0.70596,0.70596,0.70596,0.70596,0.70596,0.70596,0.70596,0.70611,0.70611,0.70611,0.70611,0.70611,0.70611,0.70611,0.70611,0.70611,0.70611,0.70611,0.70627,0.70627,0.70627,0.70606,0.70606,0.70606,0.70606,0.70606,0.70606,0.70606,0.70621,0.70621,0.70621,0.70621,0.70621,0.70621,0.70621,0.70621,0.70621,0.70621,0.70637,0.70637,0.70637,0.70637,0.70637,0.70637,0.70637,0.70637,0.70637,0.70637,0.70637,0.70652,0.70652,0.70652,0.70652,0.70652,0.70652,0.70652,0.70652,0.70652,0.70652,0.70668,0.70668,0.70652,0.70637,0.70621,0.70606,0.70612,0.70596,0.70596,0.70581,0.70565,0.7055,0.70556,0.7054,0.70525,0.70509,0.70494,0.70478,0.705,0.70484,0.70469,0.70453,0.70438,0.70422,0.70428,0.70413,0.70397,0.70397,0.70382,0.70366,0.7035,0.70357,0.70341,0.70325,0.7031,0.70294,0.70279,0.703,0.70285,0.70269,0.70254,0.70238,0.70222,0.70229,0.70213,0.70197,0.70182,0.70182,0.70166,0.70063,0.54846,-0.56777,-0.71611,-0.71812,-0.71812,-0.71812,-0.71812,-0.71812,-0.71812,-0.71812,-0.71812,-0.71812,-0.71812,-0.71812,-0.71812,-0.71812,-0.71893,-0.71893,-0.71835,-0.71835,-0.71835,-0.71835,-0.71835,-0.71835,-0.71835,-0.71835,-0.71835,-0.71835,-0.71835,-0.71916,-0.71916,-0.71916,-0.71916,-0.71916,-0.71916,-0.71916,-0.71916,-0.71916,-0.71916,-0.71916,-0.71916,-0.71916,-0.71997,-0.71997,-0.71997,-0.71997,-0.71996,-0.71996,-0.71996,-0.71996,-0.71997,-0.71997,-0.71997,-0.71997,-0.71997,-0.71997,-0.71997,-0.71997,-0.71997,-0.71997,-0.71997,-0.71997,-0.71997,-0.71997,-0.71998,-0.71998,-0.71998,-0.71998,-0.71998,-0.71998,-0.71998,-0.71998,-0.71998,-0.71998,-0.71998,-0.71998,-0.71998,-0.71999,-0.71999,-0.71999,-0.71999,-0.71999,-0.71999,-0.71999,-0.71999,-0.71999,-0.71999,-0.71999,-0.71999,-0.71999,-0.72,-0.72,-0.72,-0.72,-0.72,-0.72,-0.72,-0.72,-0.72,-0.72,-0.72,-0.71919,-0.71919,-0.71919,-0.7192,-0.7192,-0.7192,-0.7192,-0.7192,-0.7192,-0.7192,-0.7192,-0.7192,-0.7192,-0.7192,-0.7192,-0.7192,-0.7192,-0.7192,-0.7192,-0.7192,-0.71921,-0.71921,-0.71921,-0.71921,-0.71921,-0.71921,-0.71921,-0.71921
0.70565,0.7058,0.7058,0.7058,0.7058,0.7058,0.7058,0.7058,0.7058,0.7058,0.7058,0.7058,0.70596,0.70596,0.70596,0.70596,0.70596,0.70596,0.70596,0.70596,0.70596,0.70596,0.70611,0.70611,0.70611,0.70611,0.70611,0.70611,0.70611,0.70611,0.70611,0.70611,0.70611,0.70627,0.70627,0.70627,0.70606,0.70606,0.70606,0.70606,0.70606,0.70606,0.70606,0.70621,0.70621,0.70621,0.70621,0.70621,0.70621,0.70621,0.70621,0.70621,0.70621,0.70637,0.70637,0.70637,0.70637,0.70637,0.70637,0.70637,0.70637,0.70637,0.70637,0.70637,0.70652,0.70652,0.70652,0.70652,0.70652,0.70652,0.70652,0.70652,0.70652,0.70652,0.70668,0.70668,0.70668,0.70668,0.70668,0.70652,0.70637,0.70621,0.70606,0.70612,0.70596,0.70581,0.70565,0.70565,0.7055,0.70556,0.7054,0.70525,0.70509,0.70494,0.70478,0.70484,0.70469,0.70469,0.70453,0.70438,0.70422,0.70428,0.70413,0.70397,0.70382,0.70366,0.70366,0.70372,0.70357,0.70341,0.70325,0.7031,0.70294,0.703,0.70285,0.70269,0.70269,0.70254,0.70238,0.70222,0.70229,0.70213,0.70197,0.70182,0.70166,0.7015,0.70063,0.54795,-0.56679,-0.71611,-0.71812,-0.71812,-0.71812,-0.71812,-0.71812,-0.71812,-0.71812,-0.71812,-0.71812,-0.71812,-0.71812,-0.71812,-0.71812,-0.71893,-0.71893,-0.71835,-0.71835,-0.71835,-0.71835,-0.71835,-0.71835,-0.71835,-0.71835,-0.71835,-0.71835,-0.71835,-0.71916,-0.71916,-0.71916,-0.71916,-0.71916,-0.71916,-0.71916,-0.71916,-0.71916,-0.71916,-0.71916,-0.71916,-0.71916,-0.71916,-0.71997,-0.71997,-0.71997,-0.71997,-0.71997,-0.71997,-0.71996,-0.71997,-0.71997,-0.71997,-0.71997,-0.71997,-0.71997,-0.71997,-0.71997,-0.71997,-0.71997,-0.71997,-0.71997,-0.71997,-0.71997,-0.71998,-0.71998,-0.71998,-0.71998,-0.71998,-0.71998,-0.71998,-0.71998,-0.71998,-0.71998,-0.71998,-0.71998,-0.71998,-0.71999,-0.71999,-0.71999,-0.71999,-0.71999,-0.71999,-0.71999,-0.71999,-0.71999,-0.71999,-0.71999,-0.71999,-0.71999,-0.71999,-0.72,-0.72,-0.72,-0.72,-0.72,-0.72,-0.72,-0.72,-0.72,-0.72,-0.72,-0.72,-0.72,-0.7192,-0.7192,-0.7192,-0.7192,-0.7192,-0.7192,-0.7192,-0.7192,-0.7192,-0.7192,-0.7192,-0.7192,-0.7192,-0.7192,-0.7192,-0.7192,-0.7192,-0.7192,-0.71921,-0.71921,-0.71921,-0.71921,-0.71921,-0.71921,-0.71921
0.7058,0.7058,0.7058,0.7058,0.7058,0.7058,0.7058,0.7058,0.7058,0.70596,0.70596,0.70596,0.70596,0.70596,0.70596,0.70596,0.70596,0.70596,0.70596,0.70611,0.70611,0.70611,0.70611,0.70611,0.70611,0.70611,0.70611,0.70611,0.70611,0.70627,0.70627,0.70627,0.70606,0.70606,0.70606,0.70606,0.70606,0.70606,0.70606,0.70606,0.70621,0.70621,0.70621,0.70621,0.70621,0.70621,0.70621,0.70621,0.70621,0.70621,0.70637,0.70637,0.70637,0.70637,0.70637,0.70637,0.70637,0.70637,0.70637,0.70637,0.70637,0.70652,0.70652,0.70652,0.70652,0.70652,0.70652,0.70652,0.70652,0.70652,0.70652,0.70668,0.70668,0.70668,0.70668,0.70668,0.70668,0.70668,0.70652,0.70652,0.70637,0.70621,0.70606,0.70612,0.70596,0.70581,0.70565,0.7055,0.70534,0.70556,0.7054,0.70525,0.70509,0.70494,0.70478,0.70484,0.70469,0.70453,0.70453,0.70438,0.70422,0.70428,0.70413,0.70397,0.70382,0.70366,0.7035,0.70357,0.70357,0.70341,0.70325,0.7031,0.70294,0.703,0.70285,0.70269,0.70254,0.70238,0.70238,0.70244,0.70229,0.70213,0.70197,0.70182,0.70166,0.7015,0.70063,0.54795,-0.56776,-0.71611,-0.71812,-0.71812,-0.71812,-0.71812,-0.71812,-0.71812,-0.71812,-0.71812,-0.71812,-0.71812,-0.71812,-0.71812,-0.71812,-0.71893,-0.71893,-0.71835,-0.71835,-0.71835,-0.71835,-0.71835,-0.71835,-0.71835,-0.71835,-0.71835,-0.71835,-0.71835,-0.71916,-0.71916,-0.71916,-0.71916,-0.71916,-0.71916,-0.71916,-0.71916,-0.71916,-0.71916,-0.71916,-0.71916,-0.71916,-0.71916,-0.71997,-0.71997,-0.71997,-0.71997,-0.71997,-0.71997,-0.71997,-0.71997,-0.71997,-0.71997,-0.71997,-0.71997,-0.71997,-0.71997,-0.71997,-0.71997,-0.71997,-0.71997,-0.71997,-0.71997,-0.71997,-0.71997,-0.71998,-0.71998,-0.71998,-0.71998,-0.71998,-0.71998,-0.71998,-0.71998,-0.71998,-0.71998,-0.71998,-0.71998,-0.71998,-0.71999,-0.71999,-0.71999,-0.71999,-0.71999,-0.71999,-0.71999,-0.71999,-0.71999,-0.71999,-0.71999,-0.71999,-0.71999,-0.72,-0.72,-0.72,-0.72,-0.72,-0.72,-0.72,-0.72,-0.72,-0.72,-0.72,-0.72,-0.72,-0.72001,-0.72001,-0.7192,-0.7192,-0.7192,-0.7192,-0.7192,-0.7192,-0.7192,-0.7192,-0.7192,-0.7192,-0.7192,-0.7192,-0.7192,-0.7192,-0.7192,-0.7192,-0.71921,-0.71921,-0.71921,-0.71921,-0.71921,-0.71921,-0.71921
0.7058,0.7058,0.7058,0.7058,0.7058,0.7058,0.70596,0.70596,0.70596,0.70596,0.70596,0.70596,0.70596,0.70596,0.70596,0.70596,0.70611,0.70611,0.70611,0.70611,0.70611,0.70611,0.70611,0.70611,0.70611,0.70611,0.70627,0.70627,0.70627,0.70606,0.70606,0.70606,0.70606,0.70606,0.70606,0.70606,0.70606,0.70621,0.70621,0.70621,0.70621,0.70621,0.70621,0.70621,0.70621,0.70621,0.70621,0.70637,0.70637,0.70637,0.70637,0.70637,0.70637,0.70637,0.70637,0.70637,0.70637,0.70652,0.70652,0.70652,0.70652,0.70652,0.70652,0.70652,0.70652,0.70652,0.70652,0.70652,0.70668,0.70668,0.70668,0.70668,0.70668,0.70668,0.70668,0.70668,0.70668,0.70668,0.70652,0.70637,0.70621,0.70621,0.70627,0.70612,0.70596,0.70581,0.70565,0.7055,0.70534,0.7054,0.70525,0.70525,0.70509,0.70494,0.70478,0.70484,0.70469,0.70453,0.70438,0.70422,0.70422,0.70428,0.70413,0.70397,0.70382,0.70366,0.7035,0.70357,0.70341,0.70325,0.70325,0.7031,0.70294,0.703,0.70285,0.70269,0.70254,0.70238,0.70222,0.70229,0.70229,0.70213,0.70197,0.70182,0.70166,0.70172,0.70063,0.54897,-0.56776,-0.71611,-0.71812,-0.71812,-0.71812,-0.71812,-0.71812,-0.71812,-0.71812,-0.71812,-0.71812,-0.71812,-0.71812,-0.71812,-0.71812,-0.71893,-0.71893,-0.71893,-0.71835,-0.71835,-0.71835,-0.71835,-0.71835,-0.71835,-0.71835,-0.71835,-0.71835,-0.71835,-0.71835,-0.71916,-0.71916,-0.71916,-0.71916,-0.71916,-0.71916,-0.71916,-0.71916,-0.71916,-0.71916,-0.71916,-0.71916,-0.71916,-0.71997,-0.71997,-0.71997,-0.71997,-0.71997,-0.71997,-0.71997,-0.71997,-0.71997,-0.71997,-0.71997,-0.71997,-0.71997,-0.71997,-0.71997,-0.71997,-0.71997,-0.71997,-0.71997,-0.71997,-0.71997,-0.71997,-0.71998,-0.71998,-0.71998,-0.71998,-0.71998,-0.71998,-0.71998,-0.71998,-0.71998,-0.71998,-0.71998,-0.71998,-0.71998,-0.71999,-0.71999,-0.71999,-0.71999,-0.71999,-0.71999,-0.71999,-0.71999,-0.71999,-0.71999,-0.71999,-0.71999,-0.71999,-0.72,-0.72,-0.72,-0.72,-0.72,-0.72,-0.72,-0.72,-0.72,-0.72,-0.72,-0.72,-0.72,-0.72,-0.72001,-0.72001,-0.72001,-0.7192,-0.7192,-0.7192,-0.7192,-0.7192,-0.7192,-0.7192,-0.7192,-0.7192,-0.7192,-0.7192,-0.7192,-0.7192,-0.7192,-0.71921,-0.71921,-0.71921,-0.71921,-0.71921,-0.71921,-0.71921
0.7058,0.7058,0.70596,0.70596,0.70596,0.70596,0.70596,0.70596,0.70596,0.70596,0.70596,0.70596,0.70596,0.70611,0.70611,0.70611,0.70611,0.70611,0.70611,0.70611,0.70611,0.70611,0.70611,0.70626,0.70626,0.70627,0.70606,0.70606,0.70606,0.70606,0.70606,0.70606,0.70606,0.70606,0.70621,0.70621,0.70621,0.70621,0.70621,0.70621,0.70621,0.70621,0.70621,0.70621,0.70637,0.70637,0.70637,0.70637,0.70637,0.70637,0.70637,0.70637,0.70637,0.70637,0.70652,0.70652,0.70652,0.70652,0.70652,0.70652,0.70652,0.70652,0.70652,0.70652,0.70652,0.70668,0.70668,0.70668,0.70668,0.70668,0.70668,0.70668,0.70668,0.70668,0.70668,0.70683,0.70683,0.70668,0.70652,0.70637,0.70621,0.70606,0.70612,0.70612,0.70596,0.70581,0.70565,0.7055,0.70556,0.7054,0.70525,0.70509,0.70494,0.70494,0.705,0.70484,0.70469,0.70453,0.70438,0.70422,0.70407,0.70413,0.70413,0.70397,0.70382,0.70366,0.7035,0.70357,0.70341,0.70325,0.7031,0.70294,0.70294,0.703,0.70285,0.70269,0.70254,0.70238,0.70222,0.70229,0.70213,0.70197,0.70197,0.70182,0.70166,0.70172,0.70063,0.54899,-0.56776,-0.71611,-0.71812,-0.71812,-0.71812,-0.71812,-0.71812,-0.71812,-0.71812,-0.71812,-0.71812,-0.71812,-0.71812,-0.71812,-0.71812,-0.71893,-0.71893,-0.71893,-0.71835,-0.71835,-0.71835,-0.71835,-0.71835,-0.71835,-0.71835,-0.71835,-0.71835,-0.71835,-0.71835,-0.71916,-0.71916,-0.71916,-0.71916,-0.71916,-0.71916,-0.71916,-0.71916,-0.71916,-0.71916,-0.71916,-0.71916,-0.71916,-0.71997,-0.71997,-0.71997,-0.71997,-0.71997,-0.71997,-0.71997,-0.71997,-0.71997,-0.71997,-0.71997,-0.71997,-0.71997,-0.71997,-0.71997,-0.71997,-0.71997,-0.71997,-0.71997,-0.71997,-0.71997,-0.71997,-0.71998,-0.71998,-0.71998,-0.71998,-0.71998,-0.71998,-0.71998,-0.71998,-0.71998,-0.71998,-0.71998,-0.71998,-0.71998,-0.71998,-0.71999,-0.71999,-0.71999,-0.71999,-0.71999,-0.71999,-0.71999,-0.71999,-0.71999,-0.71999,-0.71999,-0.71999,-0.71999,-0.72,-0.72,-0.72,-0.72,-0.72,-0.72,-0.72,-0.72,-0.72,-0.72,-0.72,-0.72,-0.72,-0.72001,-0.72001,-0.72001,-0.72001,-0.72001,-0.7192,-0.7192,-0.7192,-0.7192,-0.7192,-0.7192,-0.7192,-0.7192,-0.7192,-0.7192,-0.7192,-0.7192,-0.7192,-0.71921,-0.71921,-0.71921,-0.71921,-0.71921,-0.71921
0.70596,0.70596,0.70596,0.70596,0.70596,0.70596,0.70596,0.70596,0.70596,0.70596,0.70611,0.70611,0.70611,0.70611,0.70611,0.70611,0.70611,0.70611,0.70611,0.70611,0.70626,0.70626,0.70626,0.70606,0.70606,0.70606,0.70606,0.70606,0.70606,0.70606,0.70606,0.70621,0.70621,0.70621,0.70621,0.70621,0.70621,0.70621,0.70621,0.70621,0.70621,0.70637,0.70637,0.70637,0.70637,0.70637,0.70637,0.70637,0.70637,0.70637,0.70637,0.70652,0.70652,0.70652,0.70652,0.70652,0.70652,0.70652,0.70652,0.70652,0.70652,0.70652,0.70667,0.70667,0.70668,0.70668,0.70668,0.70668,0.70668,0.70668,0.70668,0.70668,0.70683,0.70683,0.70683,0.70683,0.70683,0.70668,0.70652,0.70637,0.70621,0.70606,0.70612,0.70596,0.70581,0.70581,0.70565,0.7055,0.70556,0.7054,0.70525,0.70509,0.70494,0.70478,0.70484,0.70484,0.70469,0.70453,0.70438,0.70422,0.70428,0.70413,0.70397,0.70382,0.70382,0.70366,0.70372,0.70357,0.70341,0.70325,0.7031,0.70294,0.70279,0.70285,0.70285,0.70269,0.70254,0.70238,0.70222,0.70229,0.70213,0.70197,0.70182,0.70166,0.70166,0.70172,0.70047,0.5495,-0.56777,-0.71611,-0.71812,-0.71812,-0.71812,-0.71812,-0.71812,-0.71812,-0.71812,-0.71812,-0.71812,-0.71812,-0.71812,-0.71812,-0.71812,-0.71812,-0.71893,-0.71893,-0.71835,-0.71835,-0.71835,-0.71835,-0.71835,-0.71835,-0.71835,-0.71835,-0.71835,-0.71835,-0.71835,-0.71916,-0.71916,-0.71916,-0.71916,-0.71916,-0.71916,-0.71916,-0.71916,-0.71916,-0.71916,-0.71916,-0.71916,-0.71916,-0.71916,-0.71997,-0.71997,-0.71997,-0.71997,-0.71997,-0.71997,-0.71997,-0.71997,-0.71997,-0.71997,-0.71997,-0.71997,-0.71997,-0.71997,-0.71997,-0.71997,-0.71997,-0.71997,-0.71997,-0.71997,-0.71997,-0.71997,-0.71998,-0.71998,-0.71998,-0.71998,-0.71998,-0.71998,-0.71998,-0.71998,-0.71998,-0.71998,-0.71998,-0.71998,-0.71998,-0.71999,-0.71999,-0.71999,-0.71999,-0.71999,-0.71999,-0.71999,-0.71999,-0.71999,-0.71999,-0.71999,-0.71999,-0.71999,-0.72,-0.72,-0.72,-0.72,-0.72,-0.72,-0.72,-0.72,-0.72,-0.72,-0.72,-0.72,-0.72,-0.72,-0.72001,-0.72001,-0.72001,-0.72001,-0.72001,-0.72001,-0.72001,-0.7192,-0.7192,-0.7192,-0.7192,-0.7192,-0.7192,-0.7192,-0.7192,-0.7192,-0.7192,-0.71921,-0.71921,-0.71921,-0.71921,-0.71921,-0.71921
0.70596,0.70596,0.70596,0.70596,0.70596,0.70596,0.70596,0.70611,0.70611,0.70611,0.70611,0.70611,0.70611,0.70611,0.70611,0.70611,0.70611,0.70626,0.70626,0.70626,0.70606,0.70606,0.70606,0.70606,0.70606,0.70606,0.70606,0.70621,0.70621,0.70621,0.70621,0.70621,0.70621,0.70621,0.70621,0.70621,0.70621,0.70621,0.70637,0.70637,0.70637,0.70637,0.70637,0.70637,0.70637,0.70637,0.70637,0.70637,0.70652,0.70652,0.70652,0.70652,0.70652,0.70652,0.70652,0.70652,0.70652,0.70652,0.70652,0.70667,0.70667,0.70667,0.70667,0.70667,0.70667,0.70667,0.70668,0.70668,0.70668,0.70683,0.70683,0.70683,0.70683,0.70683,0.70683,0.70683,0.70668,0.70668,0.70652,0.70637,0.70621,0.70606,0.70612,0.70596,0.70581,0.70565,0.7055,0.7055,0.70556,0.7054,0.70525,0.70509,0.70494,0.70478,0.70484,0.70469,0.70453,0.70453,0.70438,0.70422,0.70428,0.70413,0.70397,0.70382,0.70366,0.7035,0.70372,0.70357,0.70341,0.70325,0.7031,0.70294,0.703,0.70285,0.70269,0.70254,0.70254,0.70238,0.70244,0.70229,0.70213,0.70197,0.70182,0.70166,0.7015,0.70157,0.70047,0.54798,-0.56776,-0.71611,-0.71731,-0.71812,-0.71812,-0.71812,-0.71812,-0.71812,-0.71812,-0.71812,-0.71812,-0.71812,-0.71812,-0.71812,-0.71812,-0.71812,-0.71893,-0.71893,-0.71835,-0.71835,-0.71835,-0.71835,-0.71835,-0.71835,-0.71835,-0.71835,-0.71835,-0.71835,-0.71835,-0.71916,-0.71916,-0.71916,-0.71916,-0.71916,-0.71916,-0.71916,-0.71916,-0.71916,-0.71916,-0.71916,-0.71916,-0.71916,-0.71916,-0.71997,-0.71997,-0.71997,-0.71997,-0.71997,-0.71997,-0.71997,-0.71997,-0.71997,-0.71997,-0.71997,-0.71997,-0.71997,-0.71997,-0.71997,-0.71997,-0.71997,-0.71997,-0.71997,-0.71997,-0.71997,-0.71997,-0.71998,-0.71998,-0.71998,-0.71998,-0.71998,-0.71998,-0.71998,-0.71998,-0.71998,-0.71998,-0.71998,-0.71998,-0.71998,-0.71999,-0.71999,-0.71999,-0.71999,-0.71999,-0.71999,-0.71999,-0.71999,-0.71999,-0.71999,-0.71999,-0.71999,-0.71999,-0.71999,-0.72,-0.72,-0.72,-0.72,-0.72,-0.72,-0.72,-0.72,-0.72,-0.72,-0.72,-0.72,-0.72,-0.72001,-0.72001,-0.72001,-0.72001,-0.72001,-0.72001,-0.72001,-0.72001,-0.72001,-0.7192,-0.7192,-0.7192,-0.7192,-0.7192,-0.7192,-0.7192,-0.7192,-0.7192,-0.71921,-0.71921,-0.71921,-0.71921,-0.71921
0.70596,0.70596,0.70596,0.70596,0.70611,0.70611,0.70611,0.70611,0.70611,0.70611,0.70611,0.70611,0.70611,0.70611,0.70626,0.70626,0.70626,0.70606,0.70606,0.70606,0.70606,0.70606,0.70606,0.70606,0.70621,0.70621,0.70621,0.70621,0.70621,0.70621,0.70621,0.70621,0.70621,0.70621,0.70621,0.70637,0.70637,0.70637,0.70637,0.70637,0.70637,0.70637,0.70637,0.70637,0.70637,0.70652,0.70652,0.70652,0.70652,0.70652,0.70652,0.70652,0.70652,0.70652,0.70652,0.70652,0.70667,0.70667,0.70667,0.70667,0.70667,0.70667,0.70667,0.70667,0.70667,0.70667,0.70683,0.70683,0.70683,0.70683,0.70683,0.70683,0.70683,0.70683,0.70662,0.70683,0.70668,0.70652,0.70637,0.70637,0.70621,0.70627,0.70612,0.70596,0.70581,0.70565,0.7055,0.70534,0.7054,0.7054,0.70525,0.70509,0.70494,0.70478,0.70484,0.70469,0.70453,0.70438,0.70438,0.70422,0.70428,0.70413,0.70397,0.70382,0.70366,0.7035,0.70357,0.70341,0.70341,0.70325,0.7031,0.70294,0.703,0.70285,0.70269,0.70254,0.70238,0.70222,0.70244,0.70229,0.70213,0.70197,0.70182,0.70166,0.70172,0.70157,0.70047,0.54747,-0.56777,-0.71611,-0.71731,-0.71812,-0.71812,-0.71812,-0.71812,-0.71812,-0.71812,-0.71812,-0.71812,-0.71812,-0.71812,-0.71812,-0.71812,-0.71812,-0.71893,-0.71893,-0.71893,-0.71835,-0.71835,-0.71835,-0.71835,-0.71835,-0.71835,-0.71835,-0.71835,-0.71835,-0.71835,-0.71835,-0.71916,-0.71916,-0.71916,-0.71916,-0.71916,-0.71916,-0.71916,-0.71916,-0.71916,-0.71916,-0.71916,-0.71916,-0.71916,-0.71997,-0.71997,-0.71997,-0.71997,-0.71997,-0.71997,-0.71997,-0.71997,-0.71997,-0.71997,-0.71997,-0.71997,-0.71997,-0.71997,-0.71997,-0.71997,-0.71997,-0.71997,-0.71997,-0.71997,-0.71997,-0.71997,-0.71998,-0.71998,-0.71998,-0.71998,-0.71998,-0.71998,-0.71998,-0.71998,-0.71998,-0.71998,-0.71998,-0.71998,-0.71998,-0.71998,-0.71999,-0.71999,-0.71999,-0.71999,-0.71999,-0.71999,-0.71999,-0.71999,-0.71999,-0.71999,-0.71999,-0.71999,-0.71999,-0.72,-0.72,-0.72,-0.72,-0.72,-0.72,-0.72,-0.72,-0.72,-0.72,-0.72,-0.72,-0.72,-0.72001,-0.72001,-0.72001,-0.72001,-0.72001,-0.72001,-0.72001,-0.72001,-0.72001,-0.72001,-0.72001,-0.7192,-0.7192,-0.7192,-0.7192,-0.7192,-0.7192,-0.7192,-0.71921,-0.71921,-0.71921,-0.71921,-0.71921
0.70611,0.70611,0.70611,0.70611,0.70611,0.70611,0.70611,0.70611,0.70611,0.70611,0.70611,0.70626,0.70626,0.70626,0.70606,0.70606,0.70606,0.70606,0.70606,0.70606,0.70606,0.70621,0.70621,0.70621,0.70621,0.70621,0.70621,0.70621,0.70621,0.70621,0.70621,0.70621,0.70636,0.70636,0.70637,0.70637,0.70637,0.70637,0.70637,0.70637,0.70637,0.70637,0.70652,0.70652,0.70652,0.70652,0.70652,0.70652,0.70652,0.70652,0.70652,0.70652,0.70667,0.70667,0.70667,0.70667,0.70667,0.70667,0.70667,0.70667,0.70667,0.70667,0.70667,0.70683,0.70683,0.70683,0.70683,0.70683,0.70683,0.70683,0.70683,0.70662,0.70662,0.70677,0.70662,0.70683,0.70668,0.70652,0.70637,0.70621,0.70606,0.70627,0.70612,0.70596,0.70581,0.70565,0.7055,0.70556,0.7054,0.70525,0.70509,0.70509,0.70494,0.70478,0.70484,0.70469,0.70453,0.70438,0.70422,0.70407,0.70428,0.70413,0.70397,0.70382,0.70366,0.7035,0.70357,0.70341,0.70325,0.7031,0.7031,0.70294,0.703,0.70285,0.70269,0.70254,0.70238,0.70222,0.70229,0.70213,0.70213,0.70197,0.70182,0.70166,0.70172,0.70157,0.70047,0.54798,-0.56678,-0.71611,-0.71731,-0.71812,-0.71812,-0.71812,-0.71812,-0.71812,-0.71812,-0.71812,-0.71812,-0.71812,-0.71812,-0.71812,-0.71812,-0.71812,-0.71893,-0.71893,-0.71893,-0.71835,-0.71835,-0.71835,-0.71835,-0.71835,-0.71835,-0.71835,-0.71835,-0.71835,-0.71835,-0.71835,-0.71916,-0.71916,-0.71916,-0.71916,-0.71916,-0.71916,-0.71916,-0.71916,-0.71916,-0.71916,-0.71916,-0.71916,-0.71916,-0.71997,-0.71997,-0.71997,-0.71997,-0.71997,-0.71997,-0.71997,-0.71997,-0.71997,-0.71997,-0.71997,-0.71997,-0.71997,-0.71997,-0.71997,-0.71997,-0.71997,-0.71997,-0.71997,-0.71997,-0.71997,-0.71997,-0.71997,-0.71998,-0.71998,-0.71998,-0.71998,-0.71998,-0.71998,-0.71998,-0.71998,-0.71998,-0.71998,-0.71998,-0.71998,-0.71998,-0.71999,-0.71999,-0.71999,-0.71999,-0.71999,-0.71999,-0.71999,-0.71999,-0.71999,-0.71999,-0.71999,-0.71999,-0.71999,-0.72,-0.72,-0.72,-0.72,-0.72,-0.72,-0.72,-0.72,-0.72,-0.72,-0.72,-0.72,-0.72,-0.72,-0.72001,-0.72001,-0.72001,-0.72001,-0.72001,-0.72001,-0.72001,-0.72001,-0.72001,-0.72001,-0.72001,-0.72001,-0.7192,-0.7192,-0.7192,-0.7192,-0.7192,-0.71921,-0.71921,-0.71921,-0.71921,-0.71921
0.70611,0.70611,0.70611,0.70611,0.70611,0.70611,0.70611,0.70611,0.70626,0.70626,0.70606,0.70606,0.70606,0.70606,0.70606,0.70606,0.70606,0.70606,0.70621,0.70621,0.70621,0.70621,0.70621,0.70621,0.70621,0.70621,0.70621,0.70621,0.70621,0.70636,0.70636,0.70636,0.70636,0.70636,0.70636,0.70636,0.70637,0.70637,0.70637,0.70652,0.70652,0.70652,0.70652,0.70652,0.70652,0.70652,0.70652,0.70652,0.70652,0.70667,0.70667,0.70667,0.70667,0.70667,0.70667,0.70667,0.70667,0.70667,0.70667,0.70667,0.70683,0.70683,0.70683,0.70683,0.70683,0.70683,0.70683,0.70683,0.70662,0.70662,0.70677,0.70677,0.70677,0.70677,0.70677,0.70683,0.70668,0.70652,0.70637,0.70621,0.70606,0.70612,0.70596,0.70596,0.70581,0.70565,0.7055,0.70556,0.7054,0.70525,0.70509,0.70494,0.70478,0.705,0.70484,0.70469,0.70453,0.70438,0.70422,0.70428,0.70413,0.70397,0.70397,0.70382,0.70366,0.7035,0.70357,0.70341,0.70325,0.7031,0.70294,0.70279,0.703,0.70285,0.70269,0.70254,0.70238,0.70222,0.70229,0.70213,0.70197,0.70182,0.70182,0.70166,0.70172,0.70157,0.70047,0.54798,-0.56776,-0.71611,-0.71731,-0.71812,-0.71812,-0.71812,-0.71812,-0.71812,-0.71812,-0.71812,-0.71812,-0.71812,-0.71812,-0.71812,-0.71812,-0.71812,-0.71812,-0.71893,-0.71893,-0.71835,-0.71835,-0.71835,-0.71835,-0.71835,-0.71835,-0.71835,-0.71835,-0.71835,-0.71835,-0.71835,-0.71916,-0.71916,-0.71916,-0.71916,-0.71916,-0.71916,-0.71916,-0.71916,-0.71916,-0.71916,-0.71916,-0.71916,-0.71916,-0.71997,-0.71997,-0.71997,-0.71997,-0.71997,-0.71997,-0.71997,-0.71997,-0.71997,-0.71997,-0.71997,-0.71997,-0.71997,-0.71997,-0.71997,-0.71997,-0.71997,-0.71997,-0.71997,-0.71997,-0.71997,-0.71997,-0.71997,-0.71998,-0.71998,-0.71998,-0.71998,-0.71998,-0.71998,-0.71998,-0.71998,-0.71998,-0.71998,-0.71998,-0.71998,-0.71998,-0.71999,-0.71999,-0.71999,-0.71999,-0.71999,-0.71999,-0.71999,-0.71999,-0.71999,-0.71999,-0.71999,-0.71999,-0.71999,-0.71999,-0.72,-0.72,-0.72,-0.72,-0.72,-0.72,-0.72,-0.72,-0.72,-0.72,-0.72,-0.72,-0.72,-0.72001,-0.72001,-0.72001,-0.72001,-0.72001,-0.72001,-0.72001,-0.72001,-0.72001,-0.72001,-0.72001,-0.72001,-0.72001,-0.72002,-0.72002,-0.7192,-0.7192,-0.7192,-0.71921,-0.71921,-0.71921,-0.71921
0.70611,0.70611,0.70611,0.70611,0.70611,0.70626,0.70626,0.70606,0.70606,0.70606,0.70606,0.70606,0.70606,0.70606,0.70606,0.70621,0.70621,0.70621,0.70621,0.70621,0.70621,0.70621,0.70621,0.70621,0.70621,0.70636,0.70636,0.70636,0.70636,0.70636,0.70636,0.70636,0.70636,0.70636,0.70636,0.70636,0.70652,0.70652,0.70652,0.70652,0.70652,0.70652,0.70652,0.70652,0.70652,0.70652,0.70667,0.70667,0.70667,0.70667,0.70667,0.70667,0.70667,0.70667,0.70667,0.70667,0.70667,0.70683,0.70683,0.70683,0.70683,0.70683,0.70683,0.70683,0.70683,0.70662,0.70662,0.70677,0.70677,0.70677,0.70677,0.70677,0.70677,0.70677,0.70662,0.70683,0.70668,0.70652,0.70637,0.70621,0.70606,0.70612,0.70596,0.70581,0.70565,0.70565,0.7055,0.70556,0.7054,0.70525,0.70509,0.70494,0.70478,0.70484,0.70469,0.70469,0.70453,0.70438,0.70422,0.70428,0.70413,0.70397,0.70382,0.70366,0.70366,0.70372,0.70357,0.70341,0.70325,0.7031,0.70294,0.703,0.70285,0.70269,0.70269,0.70254,0.70238,0.70222,0.70229,0.70213,0.70197,0.70182,0.70166,0.7015,0.70172,0.70157,0.70031,0.54747,-0.56679,-0.71611,-0.71731,-0.71812,-0.71812,-0.71812,-0.71812,-0.71812,-0.71812,-0.71812,-0.71812,-0.71812,-0.71812,-0.71812,-0.71812,-0.71812,-0.71812,-0.71893,-0.71893,-0.71835,-0.71835,-0.71835,-0.71835,-0.71835,-0.71835,-0.71835,-0.71835,-0.71835,-0.71835,-0.71835,-0.71916,-0.71916,-0.71916,-0.71916,-0.71916,-0.71916,-0.71916,-0.71916,-0.71916,-0.71916,-0.71916,-0.71916,-0.71916,-0.71916,-0.71997,-0.71997,-0.71997,-0.71997,-0.71997,-0.71997,-0.71997,-0.71997,-0.71997,-0.71997,-0.71997,-0.71997,-0.71997,-0.71997,-0.71997,-0.71997,-0.71997,-0.71997,-0.71997,-0.71997,-0.71997,-0.71997,-0.71997,-0.71998,-0.71998,-0.71998,-0.71998,-0.71998,-0.71998,-0.71998,-0.71998,-0.71998,-0.71998,-0.71998,-0.71998,-0.71998,-0.71999,-0.71999,-0.71999,-0.71999,-0.71999,-0.71999,-0.71999,-0.71999,-0.71999,-0.71999,-0.71999,-0.71999,-0.71999,-0.72,-0.72,-0.72,-0.72,-0.72,-0.72,-0.72,-0.72,-0.72,-0.72,-0.72,-0.72,-0.72,-0.72001,-0.72001,-0.72001,-0.72001,-0.72001,-0.72001,-0.72001,-0.72001,-0.72001,-0.72001,-0.72001,-0.72001,-0.72001,-0.72001,-0.72002,-0.72002,-0.72002,-0.7192,-0.71921,-0.71921,-0.71921,-0.71921
