-0.77194,-0.77142,-0.77,-0.76904,-0.77086,-0.77247,-0.77488,-0.76886,-0.77335,-0.77536,-0.77606,-0.78031,-0.77723,-0.77751,-0.77755,-0.78233,-0.78348,-0.7805,-0.78236,-0.78458,-0.78533,-0.78282,-0.7845,-0.79132,-0.78461,-0.78319,-0.78667,-0.79089,-0.7886,-0.79205,-0.79149,-0.78752,-0.79272,-0.794,-0.798,-0.79786,-0.79375,-0.79467,-0.79546,-0.80271,-0.80056,-0.8047,-0.80536,-0.80474,-0.80183,-0.80701,-0.80814,-0.80956,-0.80479,-0.80844,-0.81327,-0.81382,-0.80821,-0.81139,-0.81725,-0.82136,-0.81747,-0.82207,-0.825,-0.81921,-0.81945,-0.81671,-0.82414,-0.82684,-0.8277,-0.82713,-0.82873,-0.82159,-0.83185,-0.83052,-0.83245,-0.8372,-0.83426,-0.83713,-0.83164,-0.83247,-0.84579,-0.83951,-0.83779,-0.83894,-0.84629,-0.84963,-0.85649,-0.84693,-0.85119,-0.8671,-0.8552,-0.85639,-0.85694,-0.86216,-0.85954,-0.8574,-0.85946,-0.85872,-0.86742,-0.85551,-0.84578,-0.86621,-0.87297,-0.87429,-0.8681,-0.87036,-0.87421,-0.87788,-0.88751,-0.88021,-0.87904,-0.89417,-0.88632,-0.88849,-0.87978,-0.88136,-0.88666,-0.89305,-0.88321,-0.90153,-0.90417,-0.89626,-0.89685,-0.89825,-0.89963,-0.90947,-0.90657,-0.89684,-0.91039,-0.90978,-0.90539,-0.96376,-0.95546,-0.91208,-0.89214,-0.89635,-0.90929,-0.89829,-0.89675,-0.89225,-0.8745,-0.86676,-0.87747,-0.88114,-0.8839,-0.89345,-0.88574,-0.87374,-0.88055,-0.88627,-0.88687,-0.88962,-0.88955,-0.87122,-0.87413,-0.87108,-0.85506,-0.86592,-0.86759,-0.87376,-0.86908,-0.8665,-0.8542,-0.86747,-0.86184,-0.84512,-0.84274,-0.85267,-0.84895,-0.85118,-0.85972,-0.84729,-0.84996,-0.84164,-0.8408,-0.84239,-0.84283,-0.83164,-0.8387,-0.83104,-0.83628,-0.82964,-0.82863,-0.82475,-0.82734,-0.83099,-0.82656,-0.83686,-0.82261,-0.81786,-0.81938,-0.82375,-0.83011,-0.82807,-0.81578,-0.82374,-0.81808,-0.81641,-0.81675,-0.81945,-0.81653,-0.81317,-0.80931,-0.80839,-0.80364,-0.81217,-0.81188,-0.79823,-0.79788,-0.79185,-0.79854,-0.80418,-0.79943,-0.7949,-0.79138,-0.7943,-0.79242,-0.7966,-0.80186,-0.8034,-0.79379,-0.78375,-0.78836,-0.78181,-0.78574,-0.78897,-0.78888,-0.78377,-0.78663,-0.78227,-0.78187,-0.78022,-0.77224,-0.77937,-0.77933,-0.76982,-0.77195,-0.77678,-0.77456,-0.76923,-0.77636,-0.76654,-0.76944,-0.76965,-0.76934,-0.77355,-0.77516,-0.76505,-0.76278,-0.76462,-0.76306,-0.76956,-0.76708,-0.76892,-0.77124,-0.76583,-0.76365,-0.76558,-0.76207,-0.75632
-0.77116,-0.76973,-0.76909,-0.77302,-0.77165,-0.77237,-0.77387,-0.77484,-0.77883,-0.77791,-0.77366,-0.77961,-0.7795,-0.78164,-0.78209,-0.78244,-0.78295,-0.78581,-0.78051,-0.78749,-0.78886,-0.78511,-0.78558,-0.78803,-0.78454,-0.7863,-0.78696,-0.78759,-0.78936,-0.79571,-0.79096,-0.79361,-0.79761,-0.79111,-0.79155,-0.79762,-0.79688,-0.79607,-0.79995,-0.79998,-0.80081,-0.80665,-0.81162,-0.80007,-0.79945,-0.80783,-0.80126,-0.80851,-0.81543,-0.80763,-0.80993,-0.81398,-0.80766,-0.81333,-0.81639,-0.82141,-0.82054,-0.8175,-0.81836,-0.8129,-0.81865,-0.82196,-0.82004,-0.82223,-0.82577,-0.82768,-0.82627,-0.8235,-0.8343,-0.83347,-0.82862,-0.83666,-0.83798,-0.83713,-0.82637,-0.82068,-0.84868,-0.84534,-0.84482,-0.84468,-0.84482,-0.84757,-0.84316,-0.83211,-0.84575,-0.85399,-0.85582,-0.85431,-0.85047,-0.85756,-0.86629,-0.86333,-0.85525,-0.86802,-0.86613,-0.87134,-0.87076,-0.8693,-0.86932,-0.87009,-0.85577,-0.86828,-0.88704,-0.88484,-0.89125,-0.88531,-0.88376,-0.88773,-0.88785,-0.87986,-0.88424,-0.88473,-0.89771,-0.89038,-0.8855,-0.90394,-0.89953,-0.88844,-0.89527,-0.91202,-0.91411,-0.90633,-0.89913,-0.90486,-0.92204,-0.92161,-0.91184,-0.96664,-0.93998,-0.90997,-0.89397,-0.90671,-0.90568,-0.89835,-0.88418,-0.89112,-0.88815,-0.89789,-0.89824,-0.89528,-0.88146,-0.89762,-0.89255,-0.88345,-0.8698,-0.88117,-0.88499,-0.87036,-0.88447,-0.87977,-0.87504,-0.88394,-0.87523,-0.87086,-0.86975,-0.86649,-0.87518,-0.86037,-0.85651,-0.85869,-0.86892,-0.85101,-0.86258,-0.85787,-0.84988,-0.84443,-0.84622,-0.85042,-0.85116,-0.83585,-0.83799,-0.84185,-0.84077,-0.8353,-0.83854,-0.83804,-0.82928,-0.82987,-0.82897,-0.82146,-0.82657,-0.83873,-0.83282,-0.8361,-0.83103,-0.82752,-0.82746,-0.82867,-0.82255,-0.81433,-0.81533,-0.81898,-0.8208,-0.82268,-0.8162,-0.81071,-0.80939,-0.81308,-0.81761,-0.80723,-0.80311,-0.81369,-0.80813,-0.79462,-0.79531,-0.79358,-0.80538,-0.80991,-0.78909,-0.78789,-0.79346,-0.79913,-0.79332,-0.78749,-0.79281,-0.79873,-0.79103,-0.79159,-0.79435,-0.78496,-0.78866,-0.78614,-0.78507,-0.78646,-0.78749,-0.78337,-0.77868,-0.77705,-0.78347,-0.77814,-0.77487,-0.77461,-0.77503,-0.78188,-0.78352,-0.76858,-0.7701,-0.78151,-0.78014,-0.76952,-0.77016,-0.77396,-0.7761,-0.77156,-0.77007,-0.76334,-0.76043,-0.76498,-0.76261,-0.75887,-0.76143,-0.75638,-0.7572,-0.75928,-0.75913,-0.75936
-0.76862,-0.77056,-0.76959,-0.77485,-0.77518,-0.77299,-0.77205,-0.77763,-0.77609,-0.77119,-0.77533,-0.77631,-0.77919,-0.78339,-0.77719,-0.78004,-0.7804,-0.78145,-0.78675,-0.78857,-0.78242,-0.78277,-0.786,-0.7842,-0.78962,-0.78779,-0.78761,-0.78524,-0.79019,-0.78903,-0.78591,-0.79531,-0.79779,-0.7927,-0.79514,-0.79934,-0.79841,-0.79898,-0.80168,-0.80367,-0.80442,-0.80369,-0.79998,-0.80035,-0.80016,-0.80875,-0.80738,-0.81296,-0.81737,-0.80345,-0.80291,-0.81794,-0.80631,-0.81389,-0.81277,-0.81137,-0.82031,-0.81419,-0.82027,-0.81826,-0.82387,-0.82818,-0.83285,-0.82496,-0.82495,-0.8238,-0.8293,-0.82683,-0.82778,-0.83263,-0.8346,-0.84522,-0.84224,-0.8369,-0.83237,-0.84464,-0.84423,-0.83723,-0.8482,-0.84643,-0.85029,-0.84602,-0.83953,-0.8459,-0.85334,-0.84932,-0.85135,-0.84887,-0.85516,-0.86004,-0.86736,-0.85597,-0.86166,-0.86468,-0.87219,-0.86961,-0.87608,-0.87414,-0.86323,-0.8651,-0.87022,-0.87495,-0.87902,-0.87809,-0.87761,-0.88572,-0.8841,-0.88707,-0.89154,-0.88711,-0.88127,-0.8803,-0.89683,-0.90002,-0.8961,-0.90606,-0.90191,-0.89731,-0.90835,-0.90328,-0.90615,-0.90352,-0.90818,-0.91009,-0.90979,-0.90743,-0.91674,-0.96105,-0.93794,-0.90478,-0.87569,-0.88812,-0.89945,-0.89231,-0.90184,-0.89855,-0.88242,-0.89494,-0.89564,-0.87972,-0.88332,-0.90829,-0.90321,-0.87672,-0.86756,-0.87856,-0.88539,-0.88171,-0.87524,-0.88444,-0.87368,-0.8711,-0.87739,-0.85404,-0.86012,-0.85221,-0.87437,-0.87415,-0.85654,-0.8339,-0.85643,-0.86472,-0.86653,-0.85415,-0.84963,-0.84483,-0.84846,-0.85498,-0.84991,-0.85803,-0.84225,-0.8381,-0.84352,-0.8412,-0.83959,-0.83078,-0.82897,-0.83915,-0.83007,-0.83356,-0.83457,-0.83535,-0.83298,-0.83394,-0.83018,-0.82604,-0.82897,-0.82252,-0.82125,-0.82301,-0.81299,-0.80778,-0.8142,-0.82123,-0.8163,-0.8082,-0.81516,-0.81777,-0.81484,-0.81579,-0.81227,-0.81062,-0.8031,-0.80045,-0.7981,-0.80363,-0.79944,-0.80381,-0.79751,-0.78869,-0.79259,-0.79184,-0.79533,-0.78284,-0.78957,-0.79506,-0.78782,-0.79438,-0.79446,-0.79154,-0.78906,-0.78834,-0.78493,-0.78994,-0.78567,-0.78589,-0.77848,-0.78257,-0.7811,-0.77281,-0.77587,-0.77527,-0.78126,-0.78155,-0.78258,-0.77475,-0.77012,-0.77815,-0.78168,-0.76992,-0.76662,-0.77577,-0.78132,-0.76884,-0.77304,-0.7707,-0.76857,-0.76744,-0.76418,-0.75666,-0.7615,-0.76056,-0.76667,-0.76542,-0.75845,-0.7548
-0.77035,-0.77168,-0.77023,-0.77106,-0.77537,-0.77518,-0.77335,-0.77981,-0.7781,-0.7716,-0.77913,-0.77446,-0.77723,-0.78451,-0.77513,-0.77654,-0.77994,-0.78185,-0.78382,-0.78755,-0.78115,-0.78024,-0.78808,-0.78951,-0.78648,-0.78625,-0.79084,-0.78493,-0.78829,-0.79343,-0.79474,-0.79068,-0.79781,-0.79538,-0.79997,-0.79749,-0.80303,-0.8066,-0.79282,-0.79792,-0.79996,-0.80171,-0.80415,-0.79833,-0.8061,-0.80727,-0.81173,-0.81122,-0.80956,-0.80648,-0.80656,-0.81136,-0.81668,-0.81946,-0.8127,-0.82249,-0.81836,-0.81172,-0.82192,-0.82416,-0.83258,-0.8285,-0.82742,-0.82331,-0.82683,-0.83146,-0.83693,-0.82462,-0.82866,-0.83872,-0.83665,-0.83536,-0.82906,-0.82839,-0.8335,-0.83911,-0.84594,-0.83934,-0.84278,-0.84432,-0.85085,-0.85026,-0.85005,-0.84841,-0.85211,-0.85135,-0.85618,-0.85632,-0.85516,-0.84951,-0.86137,-0.85915,-0.85884,-0.85988,-0.86927,-0.86711,-0.86739,-0.86866,-0.86864,-0.8713,-0.87254,-0.8721,-0.8798,-0.88882,-0.87932,-0.88245,-0.88314,-0.88245,-0.88085,-0.88597,-0.88023,-0.87457,-0.88062,-0.89194,-0.89476,-0.90627,-0.90629,-0.90102,-0.89822,-0.88916,-0.89018,-0.90509,-0.90834,-0.90264,-0.90948,-0.90969,-0.91295,-0.97055,-0.94992,-0.92556,-0.90526,-0.89523,-0.89705,-0.89545,-0.89357,-0.89298,-0.89009,-0.88439,-0.89311,-0.88239,-0.89148,-0.88779,-0.88536,-0.87563,-0.8862,-0.88731,-0.88242,-0.86607,-0.86903,-0.88744,-0.87773,-0.8576,-0.86966,-0.86593,-0.86641,-0.85261,-0.86348,-0.85325,-0.85575,-0.85165,-0.86332,-0.86547,-0.87114,-0.85236,-0.85359,-0.86325,-0.85749,-0.8359,-0.84907,-0.84664,-0.8486,-0.83428,-0.84308,-0.84533,-0.84327,-0.84359,-0.84356,-0.84076,-0.83491,-0.83727,-0.83089,-0.83357,-0.8251,-0.81635,-0.82737,-0.8222,-0.8219,-0.82155,-0.82968,-0.83076,-0.81433,-0.82101,-0.81296,-0.81415,-0.82127,-0.81516,-0.81516,-0.81961,-0.80455,-0.80776,-0.81251,-0.81214,-0.81351,-0.80212,-0.80047,-0.80149,-0.80289,-0.80177,-0.7996,-0.79275,-0.79499,-0.79218,-0.80291,-0.80089,-0.79561,-0.79477,-0.78714,-0.79093,-0.79623,-0.79278,-0.78516,-0.78796,-0.78837,-0.78943,-0.77562,-0.78191,-0.78827,-0.78891,-0.78052,-0.77662,-0.77583,-0.77434,-0.78852,-0.77455,-0.77256,-0.77301,-0.77566,-0.76882,-0.77178,-0.77556,-0.76942,-0.77055,-0.7702,-0.7673,-0.7661,-0.76831,-0.76893,-0.77722,-0.7702,-0.75671,-0.76113,-0.7663,-0.75723,-0.7563,-0.75623,-0.76423
-0.77243,-0.77187,-0.77255,-0.7738,-0.77621,-0.77432,-0.77128,-0.77708,-0.7771,-0.77608,-0.77793,-0.77383,-0.77859,-0.78414,-0.77722,-0.77498,-0.77854,-0.78248,-0.78114,-0.78518,-0.78841,-0.78274,-0.78177,-0.78794,-0.78773,-0.78931,-0.79054,-0.78968,-0.79202,-0.79402,-0.79614,-0.79854,-0.79043,-0.79024,-0.80201,-0.80037,-0.79643,-0.79751,-0.79763,-0.79913,-0.79972,-0.80492,-0.80458,-0.80492,-0.80702,-0.80695,-0.80784,-0.80665,-0.80781,-0.81215,-0.80778,-0.80389,-0.81158,-0.81724,-0.81809,-0.82078,-0.81945,-0.81614,-0.82222,-0.82443,-0.82542,-0.82278,-0.82792,-0.82551,-0.83063,-0.82904,-0.83827,-0.83535,-0.83296,-0.83693,-0.83377,-0.83688,-0.82694,-0.8298,-0.83778,-0.84143,-0.84719,-0.8419,-0.84105,-0.84349,-0.84761,-0.85319,-0.85354,-0.85103,-0.84676,-0.84537,-0.8519,-0.85544,-0.84975,-0.85562,-0.85675,-0.85623,-0.86033,-0.86377,-0.87403,-0.86886,-0.87209,-0.86444,-0.86808,-0.88132,-0.87571,-0.87985,-0.88704,-0.8817,-0.87359,-0.88271,-0.89057,-0.88931,-0.88715,-0.88691,-0.88222,-0.88263,-0.88132,-0.89572,-0.89791,-0.90055,-0.90354,-0.90315,-0.89278,-0.89371,-0.894,-0.89744,-0.90465,-0.90301,-0.90349,-0.90884,-0.91983,-0.96947,-0.95388,-0.91245,-0.9018,-0.92442,-0.90821,-0.91099,-0.89814,-0.89411,-0.89362,-0.89471,-0.89613,-0.89637,-0.90166,-0.87202,-0.88208,-0.89083,-0.88514,-0.88152,-0.87585,-0.8465,-0.86825,-0.87659,-0.87188,-0.86661,-0.88335,-0.87701,-0.86772,-0.86903,-0.8703,-0.86285,-0.85625,-0.87117,-0.86716,-0.86027,-0.85661,-0.85507,-0.85356,-0.8594,-0.85424,-0.84132,-0.84552,-0.83362,-0.83876,-0.84098,-0.84582,-0.84366,-0.84489,-0.84642,-0.83744,-0.8308,-0.8367,-0.83376,-0.82463,-0.83655,-0.83138,-0.82543,-0.83319,-0.81012,-0.81524,-0.8236,-0.82542,-0.83458,-0.81749,-0.82181,-0.81288,-0.81298,-0.81986,-0.82099,-0.81058,-0.81756,-0.81281,-0.80006,-0.80227,-0.8117,-0.80904,-0.80718,-0.79997,-0.79284,-0.80082,-0.79572,-0.79759,-0.80054,-0.79387,-0.79498,-0.79087,-0.79846,-0.79064,-0.78455,-0.79045,-0.79289,-0.7954,-0.79008,-0.78814,-0.78755,-0.78159,-0.78785,-0.78323,-0.78501,-0.78665,-0.78435,-0.7771,-0.78086,-0.78128,-0.7791,-0.78529,-0.78383,-0.78141,-0.77923,-0.77566,-0.76891,-0.76941,-0.76946,-0.77137,-0.77442,-0.76827,-0.76316,-0.76813,-0.76619,-0.76145,-0.76662,-0.76719,-0.76574,-0.76006,-0.76497,-0.75888,-0.75747,-0.75854,-0.76129
-0.76881,-0.77066,-0.7728,-0.76984,-0.77124,-0.77673,-0.77161,-0.77737,-0.77494,-0.77694,-0.77574,-0.77834,-0.78212,-0.77585,-0.77586,-0.78115,-0.78121,-0.78109,-0.77871,-0.78646,-0.78909,-0.78497,-0.78372,-0.78566,-0.78921,-0.78869,-0.79335,-0.79366,-0.79451,-0.79544,-0.79265,-0.79786,-0.79795,-0.794,-0.79281,-0.79462,-0.7944,-0.79843,-0.80336,-0.79912,-0.79954,-0.79999,-0.80256,-0.80791,-0.8101,-0.80532,-0.80338,-0.80672,-0.80445,-0.80908,-0.81467,-0.81217,-0.81108,-0.81635,-0.82028,-0.81779,-0.81474,-0.81945,-0.8192,-0.82417,-0.82055,-0.82387,-0.82333,-0.82933,-0.83312,-0.82249,-0.83111,-0.83062,-0.82872,-0.83082,-0.83119,-0.83499,-0.83556,-0.84315,-0.83944,-0.83917,-0.83684,-0.84962,-0.84093,-0.84423,-0.83952,-0.84511,-0.85695,-0.85722,-0.8492,-0.85136,-0.84943,-0.85248,-0.85912,-0.85805,-0.85126,-0.85607,-0.85823,-0.86108,-0.86422,-0.86231,-0.8636,-0.87064,-0.87523,-0.87334,-0.88269,-0.87829,-0.88435,-0.87227,-0.86637,-0.88005,-0.88828,-0.88171,-0.8949,-0.88803,-0.88765,-0.88892,-0.88704,-0.88867,-0.89191,-0.90188,-0.90175,-0.89804,-0.89719,-0.89745,-0.9018,-0.90787,-0.90586,-0.91584,-0.90904,-0.91348,-0.91926,-0.96265,-0.94462,-0.90188,-0.89537,-0.90491,-0.90649,-0.90146,-0.89178,-0.89662,-0.87088,-0.88571,-0.90056,-0.90046,-0.91226,-0.89756,-0.89091,-0.89477,-0.88184,-0.88462,-0.89613,-0.87175,-0.87465,-0.86637,-0.85871,-0.87107,-0.88453,-0.8853,-0.87096,-0.86832,-0.86109,-0.86215,-0.86654,-0.86919,-0.85425,-0.85805,-0.8548,-0.85868,-0.84797,-0.85918,-0.84351,-0.84133,-0.85215,-0.84511,-0.84351,-0.85615,-0.85384,-0.83141,-0.83596,-0.83354,-0.83627,-0.83337,-0.83129,-0.83428,-0.83931,-0.83272,-0.84181,-0.83213,-0.82606,-0.82125,-0.82544,-0.83711,-0.8325,-0.83023,-0.82292,-0.82257,-0.82171,-0.82461,-0.81897,-0.82669,-0.8226,-0.81994,-0.80471,-0.80924,-0.80955,-0.80597,-0.80279,-0.799,-0.80072,-0.79263,-0.7998,-0.79272,-0.79657,-0.7941,-0.78796,-0.79196,-0.79367,-0.80113,-0.7959,-0.79432,-0.79026,-0.79971,-0.79583,-0.78368,-0.78432,-0.78432,-0.78435,-0.78355,-0.78823,-0.78871,-0.78916,-0.77434,-0.7759,-0.77632,-0.77248,-0.78039,-0.77816,-0.78007,-0.78053,-0.77563,-0.76937,-0.77188,-0.77102,-0.77233,-0.77382,-0.77335,-0.77489,-0.7745,-0.76654,-0.77127,-0.76554,-0.76348,-0.76531,-0.76744,-0.76533,-0.77021,-0.7652,-0.77107,-0.76143,-0.75988
-0.77225,-0.77299,-0.77407,-0.77024,-0.77102,-0.77941,-0.77398,-0.77678,-0.77379,-0.7759,-0.77555,-0.7751,-0.77709,-0.77611,-0.78024,-0.78445,-0.78753,-0.78095,-0.78301,-0.78486,-0.78699,-0.78805,-0.78712,-0.79083,-0.78887,-0.79057,-0.78924,-0.79059,-0.78959,-0.78612,-0.78813,-0.79814,-0.79599,-0.79572,-0.79427,-0.79633,-0.79947,-0.80055,-0.79882,-0.79573,-0.79932,-0.80261,-0.79975,-0.80753,-0.81102,-0.80476,-0.80677,-0.80506,-0.80361,-0.80343,-0.81554,-0.8127,-0.81553,-0.81835,-0.82086,-0.82058,-0.8189,-0.8131,-0.81589,-0.81617,-0.82224,-0.82169,-0.82441,-0.83068,-0.83282,-0.82823,-0.8263,-0.82538,-0.83029,-0.83215,-0.82284,-0.83017,-0.83654,-0.84732,-0.84812,-0.84142,-0.84652,-0.84766,-0.84359,-0.84563,-0.85117,-0.84765,-0.84647,-0.84979,-0.84546,-0.85114,-0.85274,-0.85233,-0.85605,-0.8539,-0.85802,-0.8598,-0.87221,-0.86535,-0.86025,-0.86186,-0.87208,-0.86803,-0.88162,-0.86795,-0.8759,-0.87947,-0.88268,-0.87579,-0.8727,-0.88205,-0.89005,-0.87355,-0.88931,-0.88351,-0.8852,-0.88475,-0.88404,-0.89247,-0.88703,-0.89609,-0.90079,-0.90591,-0.90271,-0.88949,-0.90451,-0.90462,-0.91051,-0.91652,-0.9097,-0.91174,-0.91433,-0.95412,-0.9652,-0.90988,-0.90535,-0.91421,-0.91367,-0.89918,-0.90581,-0.90081,-0.89146,-0.8974,-0.8943,-0.884,-0.89972,-0.88508,-0.89064,-0.88032,-0.8676,-0.8699,-0.88447,-0.88439,-0.89079,-0.87983,-0.86947,-0.87283,-0.87944,-0.87802,-0.87365,-0.87617,-0.86225,-0.86372,-0.86328,-0.86135,-0.85511,-0.85244,-0.86642,-0.86286,-0.85705,-0.85564,-0.85376,-0.8476,-0.85847,-0.85406,-0.85443,-0.8524,-0.84835,-0.84565,-0.84313,-0.83889,-0.83425,-0.83364,-0.83353,-0.83712,-0.8389,-0.8293,-0.83801,-0.83499,-0.84092,-0.82973,-0.82906,-0.82653,-0.83098,-0.82034,-0.80932,-0.82179,-0.82265,-0.81757,-0.81941,-0.82088,-0.80981,-0.81262,-0.80906,-0.8179,-0.81034,-0.80164,-0.79834,-0.80278,-0.80278,-0.80135,-0.7995,-0.804,-0.80667,-0.79945,-0.79078,-0.79546,-0.79832,-0.7984,-0.79236,-0.8001,-0.79986,-0.79707,-0.79202,-0.79858,-0.78982,-0.7887,-0.79101,-0.78699,-0.78452,-0.79179,-0.78313,-0.78205,-0.78577,-0.77316,-0.77506,-0.78322,-0.77211,-0.77539,-0.77324,-0.76997,-0.77044,-0.76928,-0.76969,-0.76958,-0.76694,-0.76725,-0.77447,-0.77264,-0.77545,-0.76635,-0.76381,-0.76726,-0.76993,-0.76721,-0.7637,-0.76744,-0.76872,-0.76891,-0.76483,-0.76097
-0.77192,-0.77377,-0.76914,-0.77251,-0.76894,-0.7773,-0.77406,-0.77161,-0.77041,-0.77702,-0.77636,-0.77477,-0.78145,-0.77804,-0.78548,-0.78574,-0.78233,-0.7843,-0.7816,-0.78321,-0.78225,-0.78573,-0.7862,-0.78791,-0.78437,-0.79244,-0.78966,-0.78968,-0.79241,-0.78888,-0.79192,-0.79536,-0.79129,-0.79222,-0.79306,-0.7963,-0.7984,-0.79957,-0.7954,-0.79923,-0.80685,-0.80347,-0.79863,-0.80553,-0.81137,-0.80611,-0.80671,-0.80279,-0.81306,-0.81264,-0.81377,-0.81078,-0.8133,-0.81163,-0.81967,-0.81975,-0.82221,-0.82707,-0.81974,-0.81363,-0.82526,-0.82771,-0.8255,-0.83221,-0.83383,-0.82684,-0.82713,-0.83134,-0.83694,-0.83376,-0.83183,-0.83596,-0.83998,-0.83687,-0.83271,-0.83895,-0.84801,-0.85281,-0.84469,-0.82713,-0.84266,-0.84571,-0.83931,-0.84773,-0.85659,-0.84794,-0.85153,-0.85332,-0.86067,-0.85865,-0.86916,-0.86132,-0.87196,-0.87438,-0.86354,-0.85704,-0.86498,-0.8596,-0.8774,-0.86891,-0.87582,-0.87749,-0.87548,-0.8779,-0.87543,-0.88578,-0.88141,-0.88471,-0.89151,-0.89937,-0.89392,-0.89412,-0.89865,-0.89283,-0.89692,-0.89988,-0.89539,-0.90141,-0.90017,-0.90123,-0.91711,-0.91188,-0.91811,-0.92025,-0.91223,-0.90261,-0.90296,-0.95225,-0.96885,-0.91226,-0.88686,-0.90991,-0.91419,-0.89995,-0.89859,-0.89832,-0.89433,-0.89724,-0.8985,-0.88443,-0.89727,-0.89536,-0.89543,-0.87653,-0.86913,-0.86582,-0.85301,-0.87089,-0.88063,-0.86925,-0.8685,-0.88138,-0.88929,-0.86524,-0.86024,-0.8676,-0.85587,-0.8686,-0.8739,-0.8746,-0.86356,-0.84893,-0.86424,-0.8639,-0.85621,-0.852,-0.8565,-0.8582,-0.85959,-0.83831,-0.84304,-0.84658,-0.85178,-0.85848,-0.84565,-0.83904,-0.83314,-0.82858,-0.8429,-0.83752,-0.82771,-0.83654,-0.8286,-0.82205,-0.82699,-0.83021,-0.83601,-0.8237,-0.82468,-0.81628,-0.81353,-0.8271,-0.82057,-0.81623,-0.81746,-0.8206,-0.81388,-0.81634,-0.81201,-0.81309,-0.80783,-0.81197,-0.79651,-0.80455,-0.80738,-0.8034,-0.79344,-0.79882,-0.80301,-0.80175,-0.79894,-0.80731,-0.80259,-0.80225,-0.79096,-0.79039,-0.79335,-0.79378,-0.78708,-0.79582,-0.78597,-0.78174,-0.79115,-0.78287,-0.77813,-0.77898,-0.78559,-0.78434,-0.7865,-0.77858,-0.78589,-0.78663,-0.77751,-0.77595,-0.77944,-0.77293,-0.78244,-0.77981,-0.77408,-0.77463,-0.77161,-0.77211,-0.77056,-0.76512,-0.77289,-0.76956,-0.76812,-0.77017,-0.77299,-0.76899,-0.76768,-0.76695,-0.76843,-0.77005,-0.76208,-0.75436
-0.77119,-0.77446,-0.77247,-0.77515,-0.76974,-0.77332,-0.77325,-0.77538,-0.77805,-0.77528,-0.77621,-0.77455,-0.77879,-0.78019,-0.78466,-0.7912,-0.78485,-0.77932,-0.77819,-0.78434,-0.78646,-0.78921,-0.78649,-0.78221,-0.78572,-0.79003,-0.79312,-0.79383,-0.79752,-0.79372,-0.79152,-0.78704,-0.79196,-0.79547,-0.79309,-0.79125,-0.7991,-0.80395,-0.80652,-0.80422,-0.79921,-0.80407,-0.80467,-0.80751,-0.81211,-0.81094,-0.80808,-0.80484,-0.81015,-0.81465,-0.80909,-0.81161,-0.81555,-0.81444,-0.81864,-0.81917,-0.81449,-0.82368,-0.82057,-0.82031,-0.83093,-0.83188,-0.82664,-0.83068,-0.82658,-0.82522,-0.82385,-0.83805,-0.83699,-0.83505,-0.83981,-0.83385,-0.83609,-0.84107,-0.83038,-0.84201,-0.85146,-0.85048,-0.84118,-0.83904,-0.84678,-0.84764,-0.8487,-0.84481,-0.84694,-0.84673,-0.85444,-0.85477,-0.86427,-0.86314,-0.86553,-0.85569,-0.86042,-0.87333,-0.86497,-0.86251,-0.86974,-0.87516,-0.87094,-0.87264,-0.87939,-0.87165,-0.87594,-0.88157,-0.88223,-0.89407,-0.88777,-0.8871,-0.89113,-0.8968,-0.88928,-0.88953,-0.90019,-0.90072,-0.8856,-0.89052,-0.90825,-0.90162,-0.89192,-0.90509,-0.90522,-0.89794,-0.90505,-0.91609,-0.90693,-0.9187,-0.90763,-0.95378,-0.95296,-0.90409,-0.89858,-0.89958,-0.90639,-0.91329,-0.91308,-0.8997,-0.88263,-0.89386,-0.88509,-0.87428,-0.8836,-0.89152,-0.88854,-0.87405,-0.88122,-0.88687,-0.87159,-0.88085,-0.88058,-0.86924,-0.86235,-0.87266,-0.87889,-0.88488,-0.87264,-0.87834,-0.87069,-0.86886,-0.87542,-0.87382,-0.87288,-0.8637,-0.85563,-0.85511,-0.86563,-0.85116,-0.8599,-0.85163,-0.85405,-0.84574,-0.84955,-0.84416,-0.84858,-0.84851,-0.84842,-0.84158,-0.82847,-0.82975,-0.8466,-0.8353,-0.83148,-0.83426,-0.834,-0.82963,-0.8281,-0.81973,-0.81716,-0.83113,-0.829,-0.82152,-0.8162,-0.8254,-0.82552,-0.82284,-0.8166,-0.81651,-0.81121,-0.79544,-0.80601,-0.81075,-0.80546,-0.80928,-0.79858,-0.80412,-0.80489,-0.80236,-0.79709,-0.80191,-0.80113,-0.8016,-0.80223,-0.8003,-0.80417,-0.80098,-0.79517,-0.79355,-0.79161,-0.7914,-0.78428,-0.78287,-0.7841,-0.78103,-0.78346,-0.78797,-0.79105,-0.78379,-0.78837,-0.78821,-0.78041,-0.78227,-0.7855,-0.78415,-0.77628,-0.77579,-0.77332,-0.77132,-0.78306,-0.78717,-0.77554,-0.77501,-0.77492,-0.76812,-0.76988,-0.76849,-0.76732,-0.7645,-0.77087,-0.76762,-0.76501,-0.7681,-0.76256,-0.76399,-0.76504,-0.76164,-0.76069,-0.7609
-0.77486,-0.77278,-0.77366,-0.77548,-0.77128,-0.77458,-0.77199,-0.77507,-0.77728,-0.7788,-0.77558,-0.77438,-0.77675,-0.78061,-0.77973,-0.78152,-0.7853,-0.7782,-0.77761,-0.78856,-0.78576,-0.78795,-0.79129,-0.78793,-0.78978,-0.78839,-0.7901,-0.79405,-0.79237,-0.78966,-0.79404,-0.79018,-0.79024,-0.797,-0.79782,-0.79418,-0.79993,-0.8011,-0.80456,-0.796,-0.79367,-0.80689,-0.79869,-0.80693,-0.80517,-0.80902,-0.812,-0.80692,-0.81218,-0.8161,-0.81973,-0.81444,-0.81964,-0.81718,-0.81391,-0.81637,-0.81643,-0.812,-0.81727,-0.82196,-0.82018,-0.82986,-0.82604,-0.82579,-0.82929,-0.83353,-0.82817,-0.82733,-0.83271,-0.83632,-0.83821,-0.83606,-0.83414,-0.83622,-0.84072,-0.84817,-0.84453,-0.84856,-0.84796,-0.85072,-0.85195,-0.85184,-0.85599,-0.84643,-0.84877,-0.85024,-0.85408,-0.86523,-0.86242,-0.85641,-0.85981,-0.85926,-0.86366,-0.87322,-0.86293,-0.86114,-0.87087,-0.8713,-0.87094,-0.87819,-0.87076,-0.87337,-0.88527,-0.87669,-0.86825,-0.88292,-0.88792,-0.88583,-0.89525,-0.89646,-0.89235,-0.89655,-0.89423,-0.89817,-0.8989,-0.89364,-0.89454,-0.89474,-0.89627,-0.90743,-0.9011,-0.88755,-0.89611,-0.90894,-0.90101,-0.91442,-0.90501,-0.95409,-0.9543,-0.90341,-0.89755,-0.9013,-0.90255,-0.90085,-0.89585,-0.89746,-0.90623,-0.90032,-0.89596,-0.88983,-0.87856,-0.88129,-0.88883,-0.87743,-0.87709,-0.88708,-0.88194,-0.87298,-0.87248,-0.88331,-0.88032,-0.86339,-0.8599,-0.86518,-0.88228,-0.8739,-0.86522,-0.86721,-0.86441,-0.85858,-0.86138,-0.86507,-0.85233,-0.86276,-0.85537,-0.85174,-0.85267,-0.85326,-0.85539,-0.85328,-0.85316,-0.84696,-0.863,-0.8405,-0.84294,-0.83783,-0.83537,-0.83761,-0.84706,-0.82711,-0.82816,-0.82837,-0.83277,-0.83193,-0.82985,-0.82887,-0.81823,-0.82624,-0.8325,-0.83282,-0.81483,-0.81526,-0.82334,-0.82014,-0.81209,-0.81713,-0.81464,-0.80881,-0.79944,-0.81142,-0.81115,-0.80183,-0.80082,-0.80734,-0.80589,-0.80657,-0.80404,-0.8002,-0.79113,-0.79927,-0.80756,-0.78909,-0.79463,-0.79891,-0.80554,-0.7958,-0.8,-0.78645,-0.78426,-0.78996,-0.7888,-0.78337,-0.78651,-0.79144,-0.7884,-0.78174,-0.77938,-0.78095,-0.7803,-0.7759,-0.77931,-0.77652,-0.77601,-0.78018,-0.76627,-0.77021,-0.77301,-0.78106,-0.77888,-0.77595,-0.77363,-0.77197,-0.77519,-0.77712,-0.77347,-0.7638,-0.7702,-0.76289,-0.76109,-0.7673,-0.76179,-0.76497,-0.76624,-0.76117,-0.76498,-0.75912
-0.76907,-0.77254,-0.77318,-0.77481,-0.77365,-0.77487,-0.77258,-0.77558,-0.77499,-0.77751,-0.778,-0.77808,-0.77762,-0.77373,-0.77762,-0.77797,-0.78173,-0.78592,-0.77932,-0.78603,-0.78652,-0.79128,-0.79025,-0.78807,-0.79033,-0.78693,-0.79053,-0.7924,-0.79315,-0.79362,-0.79383,-0.79538,-0.79821,-0.80169,-0.80088,-0.79818,-0.80279,-0.80838,-0.80592,-0.79681,-0.79431,-0.80652,-0.80863,-0.81314,-0.8095,-0.80896,-0.81337,-0.81497,-0.8006,-0.80764,-0.81831,-0.81164,-0.81333,-0.8095,-0.82193,-0.82114,-0.81945,-0.8247,-0.82744,-0.82112,-0.82,-0.82384,-0.81961,-0.82411,-0.82926,-0.8355,-0.83031,-0.82565,-0.83515,-0.84067,-0.83854,-0.84295,-0.83869,-0.8304,-0.84308,-0.83934,-0.8396,-0.8387,-0.84634,-0.85577,-0.84182,-0.84347,-0.85551,-0.84871,-0.85528,-0.86257,-0.85535,-0.8645,-0.85989,-0.85344,-0.86647,-0.86633,-0.86629,-0.87286,-0.86757,-0.85681,-0.87585,-0.87188,-0.86562,-0.88223,-0.87346,-0.87419,-0.88221,-0.87205,-0.87245,-0.88226,-0.89201,-0.88493,-0.88134,-0.8852,-0.88589,-0.90118,-0.90328,-0.89242,-0.89329,-0.89397,-0.90123,-0.89633,-0.89112,-0.90142,-0.89451,-0.89534,-0.90191,-0.90637,-0.91218,-0.91115,-0.90227,-0.94876,-0.96491,-0.89871,-0.88987,-0.90828,-0.91315,-0.89743,-0.89175,-0.89441,-0.89554,-0.88925,-0.8886,-0.88839,-0.88883,-0.89261,-0.8988,-0.901,-0.88554,-0.88494,-0.87689,-0.86272,-0.86752,-0.87672,-0.88302,-0.87288,-0.86802,-0.86677,-0.8727,-0.86126,-0.86358,-0.85373,-0.86083,-0.86086,-0.8647,-0.8632,-0.86546,-0.86994,-0.84556,-0.84192,-0.85154,-0.84975,-0.85579,-0.84602,-0.84552,-0.8481,-0.85382,-0.83846,-0.83018,-0.82647,-0.83789,-0.84919,-0.85055,-0.83378,-0.83788,-0.8334,-0.81598,-0.82058,-0.82486,-0.83127,-0.83442,-0.82069,-0.82027,-0.82179,-0.81202,-0.8175,-0.82192,-0.8177,-0.80954,-0.81186,-0.81222,-0.81008,-0.80906,-0.81652,-0.81512,-0.80554,-0.80916,-0.80533,-0.80047,-0.80267,-0.79961,-0.80776,-0.79853,-0.79289,-0.80013,-0.79194,-0.79219,-0.79708,-0.79657,-0.79097,-0.79999,-0.78095,-0.78306,-0.78902,-0.78014,-0.78919,-0.7925,-0.78975,-0.79412,-0.78268,-0.78614,-0.78163,-0.78084,-0.78452,-0.78433,-0.77846,-0.77598,-0.78007,-0.77408,-0.77128,-0.77172,-0.77568,-0.77537,-0.76971,-0.76811,-0.77259,-0.77316,-0.77393,-0.76747,-0.77544,-0.77108,-0.76555,-0.7731,-0.77539,-0.76884,-0.76601,-0.76205,-0.76157,-0.76135,-0.76408
-0.77159,-0.77254,-0.77038,-0.77349,-0.77511,-0.77554,-0.77396,-0.77784,-0.7752,-0.77906,-0.78162,-0.78162,-0.78236,-0.77481,-0.77883,-0.78089,-0.78108,-0.7853,-0.78396,-0.78307,-0.78669,-0.78566,-0.78364,-0.78102,-0.78558,-0.79145,-0.79515,-0.78832,-0.78919,-0.79782,-0.79443,-0.79519,-0.79326,-0.79305,-0.80038,-0.79788,-0.79821,-0.80611,-0.8017,-0.80145,-0.8042,-0.80451,-0.80474,-0.81062,-0.81099,-0.8048,-0.80668,-0.80674,-0.80938,-0.80852,-0.81329,-0.81474,-0.81442,-0.81029,-0.81585,-0.81558,-0.82214,-0.8244,-0.82747,-0.82825,-0.82247,-0.82442,-0.82136,-0.82522,-0.82441,-0.82865,-0.82648,-0.83654,-0.83722,-0.8363,-0.82902,-0.83359,-0.84313,-0.83784,-0.84249,-0.84359,-0.84734,-0.8439,-0.85299,-0.85089,-0.84054,-0.84085,-0.84641,-0.84587,-0.8483,-0.85546,-0.84488,-0.85974,-0.86348,-0.86293,-0.86535,-0.86399,-0.85527,-0.8668,-0.85812,-0.86575,-0.87448,-0.87345,-0.8693,-0.86827,-0.86642,-0.87234,-0.88275,-0.87404,-0.87419,-0.88228,-0.88746,-0.87949,-0.88681,-0.88991,-0.88714,-0.89065,-0.89339,-0.88698,-0.90516,-0.91314,-0.90523,-0.89581,-0.89822,-0.89308,-0.89621,-0.90767,-0.91959,-0.91416,-0.90526,-0.90577,-0.91447,-0.9634,-0.95336,-0.89775,-0.90152,-0.90651,-0.90391,-0.89748,-0.90211,-0.90547,-0.90017,-0.88876,-0.87742,-0.89237,-0.87686,-0.87506,-0.88096,-0.88596,-0.88624,-0.88628,-0.88819,-0.87206,-0.88454,-0.8726,-0.87926,-0.86686,-0.8721,-0.87516,-0.87875,-0.87033,-0.8657,-0.86818,-0.85521,-0.85722,-0.85916,-0.87075,-0.85959,-0.85987,-0.85904,-0.85163,-0.85218,-0.85312,-0.85745,-0.8498,-0.84241,-0.83975,-0.84614,-0.85676,-0.84542,-0.8362,-0.834,-0.83666,-0.84139,-0.83882,-0.83192,-0.8295,-0.82442,-0.82429,-0.8301,-0.82112,-0.81885,-0.82319,-0.81771,-0.81302,-0.82563,-0.81996,-0.81251,-0.81348,-0.81387,-0.80685,-0.80823,-0.80456,-0.81091,-0.81398,-0.81682,-0.81215,-0.81082,-0.80101,-0.80608,-0.80588,-0.79847,-0.80268,-0.79619,-0.79749,-0.80062,-0.80412,-0.79593,-0.7958,-0.79885,-0.79517,-0.79698,-0.79201,-0.78252,-0.78087,-0.78293,-0.78916,-0.7905,-0.7859,-0.79304,-0.78793,-0.79716,-0.7873,-0.78362,-0.78984,-0.78406,-0.7785,-0.77527,-0.78463,-0.78349,-0.77122,-0.77085,-0.77205,-0.76981,-0.76662,-0.76668,-0.7653,-0.76798,-0.77694,-0.76838,-0.76411,-0.77315,-0.7699,-0.76185,-0.76781,-0.76986,-0.76294,-0.75971,-0.76462,-0.76636,-0.76367
-0.77283,-0.7693,-0.77151,-0.77514,-0.77603,-0.77468,-0.77544,-0.77777,-0.78146,-0.78243,-0.77774,-0.77787,-0.77867,-0.77926,-0.7818,-0.78392,-0.78474,-0.78321,-0.78374,-0.784,-0.78819,-0.7886,-0.78614,-0.79031,-0.79241,-0.78932,-0.79157,-0.79491,-0.7946,-0.79675,-0.79187,-0.79445,-0.79335,-0.79297,-0.7989,-0.79962,-0.80102,-0.80272,-0.80288,-0.79829,-0.80396,-0.80432,-0.80102,-0.8015,-0.80778,-0.80859,-0.80961,-0.81206,-0.80377,-0.80681,-0.81555,-0.81835,-0.81975,-0.81275,-0.81416,-0.81699,-0.81506,-0.81755,-0.81535,-0.82333,-0.82031,-0.8225,-0.83275,-0.82928,-0.82294,-0.83412,-0.83754,-0.84173,-0.83991,-0.83095,-0.83286,-0.84311,-0.84009,-0.84157,-0.83885,-0.84067,-0.84236,-0.84458,-0.83854,-0.83988,-0.84201,-0.84724,-0.84985,-0.85394,-0.85212,-0.85506,-0.8513,-0.85838,-0.86196,-0.86319,-0.86889,-0.87653,-0.8585,-0.86864,-0.86256,-0.8739,-0.86693,-0.8772,-0.87551,-0.86964,-0.87351,-0.87759,-0.88642,-0.88025,-0.87999,-0.88577,-0.87816,-0.88357,-0.88735,-0.88857,-0.89322,-0.89299,-0.89318,-0.8882,-0.89177,-0.9014,-0.89058,-0.89117,-0.90247,-0.90528,-0.90845,-0.90695,-0.91453,-0.91368,-0.91211,-0.91643,-0.91568,-0.96655,-0.95468,-0.90582,-0.91162,-0.90155,-0.8974,-0.8963,-0.90434,-0.9159,-0.90587,-0.90288,-0.88957,-0.88346,-0.88347,-0.8851,-0.88771,-0.8909,-0.88932,-0.88165,-0.88487,-0.87702,-0.88629,-0.87343,-0.87222,-0.87196,-0.87938,-0.86958,-0.87147,-0.8556,-0.8508,-0.87571,-0.86892,-0.86085,-0.85575,-0.86587,-0.85641,-0.84927,-0.86193,-0.85559,-0.8489,-0.85793,-0.85113,-0.84319,-0.83713,-0.83689,-0.83784,-0.84479,-0.85285,-0.8441,-0.83153,-0.83452,-0.83747,-0.83823,-0.83588,-0.83205,-0.84233,-0.83246,-0.83141,-0.83323,-0.83408,-0.82355,-0.82672,-0.82989,-0.83678,-0.82414,-0.81519,-0.81435,-0.81607,-0.81107,-0.81765,-0.82031,-0.81437,-0.81232,-0.81029,-0.80701,-0.80694,-0.80007,-0.80061,-0.80417,-0.80054,-0.80886,-0.80339,-0.80031,-0.79728,-0.79601,-0.78895,-0.79533,-0.79997,-0.79225,-0.80008,-0.78978,-0.78231,-0.78749,-0.78327,-0.78614,-0.78765,-0.78513,-0.78612,-0.7811,-0.77869,-0.78472,-0.78129,-0.77979,-0.77983,-0.77775,-0.77609,-0.7847,-0.78236,-0.76447,-0.77407,-0.7779,-0.77636,-0.7799,-0.77164,-0.76438,-0.77041,-0.77657,-0.76586,-0.76473,-0.76728,-0.76484,-0.76965,-0.77009,-0.7623,-0.76059,-0.75999,-0.76319,-0.76019,-0.76155
-0.77063,-0.77033,-0.77256,-0.77522,-0.77325,-0.77728,-0.7838,-0.77692,-0.77824,-0.78243,-0.7777,-0.782,-0.7815,-0.78272,-0.7792,-0.78287,-0.78437,-0.78144,-0.78297,-0.7859,-0.79214,-0.79138,-0.7871,-0.78736,-0.78863,-0.78651,-0.7906,-0.79567,-0.79227,-0.79354,-0.79534,-0.79296,-0.79543,-0.7983,-0.79646,-0.79641,-0.80193,-0.80469,-0.80287,-0.79738,-0.79918,-0.80555,-0.80368,-0.80445,-0.80416,-0.8067,-0.8089,-0.80988,-0.80377,-0.80881,-0.81136,-0.81916,-0.81808,-0.80906,-0.81476,-0.82853,-0.82141,-0.81442,-0.82388,-0.83231,-0.82332,-0.82848,-0.83738,-0.83308,-0.82655,-0.83545,-0.83567,-0.83399,-0.82732,-0.83237,-0.84079,-0.83286,-0.83061,-0.83495,-0.8418,-0.84679,-0.8421,-0.84396,-0.83592,-0.84183,-0.85131,-0.85309,-0.84867,-0.8494,-0.84891,-0.86115,-0.85467,-0.85369,-0.85707,-0.86242,-0.87002,-0.86359,-0.84956,-0.85983,-0.86354,-0.85955,-0.86668,-0.88125,-0.87699,-0.87535,-0.87276,-0.87999,-0.88131,-0.88378,-0.89138,-0.89338,-0.89148,-0.88784,-0.88971,-0.89175,-0.8868,-0.89512,-0.89478,-0.89337,-0.89671,-0.91281,-0.89692,-0.88749,-0.89437,-0.91649,-0.90922,-0.90239,-0.90057,-0.90856,-0.90792,-0.90893,-0.91814,-0.9636,-0.95166,-0.89323,-0.90973,-0.89848,-0.8874,-0.8845,-0.89295,-0.90625,-0.91417,-0.89669,-0.89235,-0.89494,-0.89505,-0.90306,-0.90211,-0.89769,-0.88272,-0.8728,-0.88291,-0.8765,-0.88611,-0.87955,-0.87592,-0.8676,-0.8694,-0.86861,-0.87367,-0.87992,-0.87359,-0.87019,-0.8753,-0.8718,-0.85255,-0.85234,-0.86579,-0.85769,-0.8532,-0.85413,-0.84597,-0.85509,-0.85762,-0.84854,-0.85445,-0.85284,-0.84904,-0.8429,-0.84033,-0.84079,-0.83753,-0.83355,-0.82979,-0.84058,-0.8414,-0.8439,-0.84614,-0.82485,-0.83212,-0.832,-0.82038,-0.8218,-0.82595,-0.82879,-0.82172,-0.81492,-0.81732,-0.82256,-0.81159,-0.82097,-0.81417,-0.81027,-0.81405,-0.81003,-0.81171,-0.81191,-0.81607,-0.80157,-0.80162,-0.81467,-0.81407,-0.81073,-0.79656,-0.80095,-0.79883,-0.80233,-0.79467,-0.78645,-0.79665,-0.79402,-0.79251,-0.79043,-0.79784,-0.79815,-0.79061,-0.79126,-0.79075,-0.79192,-0.78277,-0.78632,-0.78252,-0.77583,-0.77882,-0.78433,-0.78394,-0.77974,-0.78223,-0.79043,-0.7842,-0.77266,-0.77917,-0.77177,-0.7709,-0.77177,-0.77682,-0.77153,-0.76557,-0.76687,-0.7725,-0.7724,-0.77178,-0.76963,-0.76869,-0.77255,-0.77199,-0.7649,-0.76628,-0.76312,-0.76317,-0.76034
-0.77537,-0.77429,-0.76871,-0.76981,-0.77368,-0.77873,-0.78103,-0.78013,-0.77739,-0.77945,-0.78312,-0.78178,-0.77913,-0.78158,-0.78216,-0.78632,-0.78442,-0.78351,-0.78558,-0.78598,-0.78868,-0.78578,-0.78461,-0.78509,-0.79043,-0.7885,-0.78939,-0.79212,-0.79082,-0.79466,-0.79545,-0.7936,-0.79214,-0.79713,-0.80082,-0.79593,-0.79789,-0.79501,-0.79481,-0.79944,-0.80318,-0.81037,-0.81003,-0.80835,-0.80495,-0.8036,-0.80954,-0.80855,-0.80878,-0.81303,-0.81191,-0.81967,-0.81028,-0.81302,-0.81968,-0.82855,-0.82267,-0.81831,-0.8255,-0.8327,-0.83541,-0.81855,-0.82398,-0.82981,-0.82684,-0.8317,-0.82818,-0.83022,-0.82825,-0.83017,-0.83725,-0.84301,-0.82979,-0.83184,-0.83438,-0.83554,-0.84282,-0.84357,-0.84796,-0.85081,-0.84794,-0.84516,-0.84885,-0.85337,-0.85036,-0.86484,-0.86995,-0.85999,-0.85552,-0.8583,-0.86757,-0.86146,-0.86335,-0.87034,-0.8697,-0.86849,-0.8674,-0.87654,-0.87997,-0.87711,-0.86804,-0.87654,-0.88247,-0.87465,-0.88133,-0.87693,-0.87726,-0.88402,-0.8826,-0.89696,-0.89,-0.88693,-0.88584,-0.89204,-0.89618,-0.90753,-0.9049,-0.88937,-0.88328,-0.89867,-0.89864,-0.89636,-0.90734,-0.90737,-0.89754,-0.89639,-0.91436,-0.96424,-0.9512,-0.89572,-0.90892,-0.90944,-0.90112,-0.89667,-0.90162,-0.89133,-0.9004,-0.89547,-0.89153,-0.89059,-0.88456,-0.89897,-0.89824,-0.88759,-0.87379,-0.85514,-0.86562,-0.88313,-0.88275,-0.88151,-0.87509,-0.8573,-0.86761,-0.87888,-0.88987,-0.87285,-0.86671,-0.87389,-0.87071,-0.87706,-0.86694,-0.85135,-0.87307,-0.86154,-0.84585,-0.8646,-0.85618,-0.86721,-0.85694,-0.85878,-0.8608,-0.85172,-0.84594,-0.84427,-0.8509,-0.84181,-0.83403,-0.81934,-0.82999,-0.8435,-0.83506,-0.84111,-0.83051,-0.82636,-0.83026,-0.82613,-0.82744,-0.8318,-0.82731,-0.83474,-0.82717,-0.81475,-0.8274,-0.82341,-0.81868,-0.81503,-0.81524,-0.82268,-0.80613,-0.80111,-0.80686,-0.81553,-0.81749,-0.80159,-0.80798,-0.80719,-0.80212,-0.80165,-0.80739,-0.79652,-0.79124,-0.79415,-0.79889,-0.79407,-0.79809,-0.79898,-0.78836,-0.79704,-0.79141,-0.78676,-0.78371,-0.78801,-0.78495,-0.78914,-0.79125,-0.79436,-0.78772,-0.78382,-0.78913,-0.7884,-0.78692,-0.77795,-0.77892,-0.78374,-0.77835,-0.77371,-0.77511,-0.77736,-0.77186,-0.77388,-0.77288,-0.77156,-0.7665,-0.77044,-0.7724,-0.7683,-0.77068,-0.77298,-0.7698,-0.76802,-0.76635,-0.76233,-0.76441,-0.76178,-0.76562,-0.76263
-0.77655,-0.77324,-0.77466,-0.77418,-0.7715,-0.77259,-0.77258,-0.77436,-0.77655,-0.77206,-0.77754,-0.78215,-0.77607,-0.78409,-0.7865,-0.79037,-0.78262,-0.78079,-0.78546,-0.7815,-0.78388,-0.77956,-0.78982,-0.78861,-0.78891,-0.78871,-0.79403,-0.79428,-0.79502,-0.79347,-0.79719,-0.79445,-0.79751,-0.80253,-0.79777,-0.79297,-0.80042,-0.79687,-0.79787,-0.80429,-0.80652,-0.80384,-0.79993,-0.80844,-0.81064,-0.80786,-0.80989,-0.80971,-0.81414,-0.81249,-0.80715,-0.81303,-0.81994,-0.81419,-0.81865,-0.81915,-0.82304,-0.8142,-0.81976,-0.82937,-0.82278,-0.8203,-0.82522,-0.82926,-0.82711,-0.82837,-0.82912,-0.834,-0.83454,-0.83607,-0.84472,-0.83691,-0.83756,-0.83744,-0.83578,-0.84166,-0.84238,-0.84028,-0.84924,-0.85176,-0.84532,-0.84936,-0.85977,-0.85805,-0.85557,-0.8567,-0.86755,-0.85858,-0.85902,-0.85363,-0.85454,-0.86194,-0.86862,-0.87246,-0.86442,-0.87229,-0.87479,-0.87988,-0.87686,-0.8756,-0.8772,-0.87668,-0.89101,-0.87973,-0.88311,-0.87658,-0.87657,-0.88995,-0.89375,-0.89825,-0.88505,-0.8904,-0.89959,-0.88907,-0.89414,-0.89115,-0.89631,-0.90204,-0.90086,-0.90061,-0.91014,-0.90969,-0.90499,-0.89895,-0.91563,-0.90912,-0.90989,-0.9568,-0.96213,-0.91011,-0.90682,-0.90435,-0.89596,-0.89245,-0.90348,-0.87856,-0.90001,-0.90009,-0.89243,-0.8881,-0.90032,-0.90227,-0.89171,-0.88643,-0.87976,-0.86677,-0.87038,-0.88842,-0.87572,-0.87637,-0.87489,-0.87004,-0.87608,-0.86902,-0.86587,-0.86434,-0.86351,-0.86337,-0.86635,-0.86758,-0.87208,-0.85877,-0.8653,-0.85866,-0.85903,-0.8601,-0.86747,-0.85373,-0.84852,-0.84418,-0.84361,-0.85079,-0.84295,-0.84242,-0.84452,-0.83535,-0.83561,-0.84069,-0.83872,-0.83219,-0.84398,-0.83839,-0.84515,-0.84089,-0.82656,-0.82771,-0.83082,-0.81347,-0.81639,-0.83324,-0.83314,-0.82019,-0.8215,-0.82067,-0.81845,-0.81047,-0.81902,-0.82028,-0.80889,-0.80363,-0.79985,-0.8081,-0.81212,-0.8074,-0.80044,-0.80378,-0.80637,-0.80581,-0.80219,-0.79073,-0.79248,-0.79219,-0.79958,-0.8031,-0.79864,-0.80139,-0.79116,-0.79154,-0.79342,-0.7922,-0.78805,-0.78838,-0.78535,-0.79103,-0.78173,-0.78326,-0.787,-0.78338,-0.78445,-0.78353,-0.78111,-0.78083,-0.78414,-0.77558,-0.78262,-0.77581,-0.7656,-0.77646,-0.77049,-0.77539,-0.77502,-0.77172,-0.76637,-0.77086,-0.76768,-0.7647,-0.76672,-0.76529,-0.76366,-0.76537,-0.76156,-0.75918,-0.76399,-0.76576,-0.76557,-0.7587
-0.77488,-0.77223,-0.77696,-0.77151,-0.7711,-0.77448,-0.77599,-0.77744,-0.77673,-0.77649,-0.77949,-0.78026,-0.78082,-0.78324,-0.77888,-0.78217,-0.7848,-0.78721,-0.7868,-0.77987,-0.7875,-0.78543,-0.78637,-0.7868,-0.78993,-0.79394,-0.78886,-0.78709,-0.78601,-0.79409,-0.79482,-0.79313,-0.79347,-0.79782,-0.79753,-0.80184,-0.80107,-0.80058,-0.80058,-0.80942,-0.80965,-0.79894,-0.80415,-0.80417,-0.81391,-0.81215,-0.81014,-0.81189,-0.80995,-0.81109,-0.80966,-0.81498,-0.82169,-0.81613,-0.81696,-0.81415,-0.81669,-0.81309,-0.81588,-0.81757,-0.82305,-0.82136,-0.82484,-0.83843,-0.83467,-0.83272,-0.83188,-0.83639,-0.84167,-0.84217,-0.84843,-0.83978,-0.83823,-0.84019,-0.84501,-0.8484,-0.84213,-0.83788,-0.85107,-0.85387,-0.846,-0.84589,-0.85247,-0.84957,-0.85288,-0.84736,-0.85203,-0.8561,-0.85489,-0.85697,-0.86081,-0.87636,-0.86963,-0.85471,-0.85481,-0.87485,-0.87535,-0.86562,-0.87111,-0.87297,-0.87405,-0.86968,-0.88295,-0.88057,-0.88685,-0.89021,-0.8871,-0.88813,-0.88606,-0.88222,-0.88982,-0.89476,-0.90516,-0.89655,-0.89118,-0.88462,-0.89772,-0.90074,-0.89961,-0.9118,-0.91372,-0.90886,-0.89172,-0.90547,-0.91828,-0.91322,-0.90741,-0.95823,-0.96039,-0.91318,-0.91525,-0.89742,-0.89493,-0.90977,-0.90459,-0.89539,-0.88481,-0.88644,-0.87829,-0.88403,-0.8958,-0.89305,-0.89438,-0.89544,-0.88936,-0.88607,-0.89246,-0.88937,-0.88825,-0.87809,-0.88206,-0.87831,-0.86893,-0.87494,-0.87593,-0.87752,-0.87095,-0.84849,-0.86944,-0.86771,-0.87204,-0.86682,-0.85719,-0.86373,-0.86533,-0.84679,-0.86583,-0.85475,-0.85328,-0.84144,-0.83765,-0.85478,-0.84637,-0.83366,-0.83357,-0.83678,-0.83991,-0.84308,-0.83999,-0.83953,-0.83834,-0.8336,-0.83474,-0.83931,-0.81911,-0.8284,-0.82659,-0.82274,-0.81872,-0.81836,-0.82015,-0.82386,-0.82151,-0.81071,-0.82117,-0.82509,-0.82131,-0.81404,-0.81538,-0.81449,-0.80822,-0.80364,-0.80483,-0.80609,-0.8093,-0.7998,-0.80857,-0.80646,-0.80832,-0.8014,-0.79875,-0.80222,-0.79769,-0.80259,-0.80222,-0.79517,-0.79433,-0.79711,-0.79799,-0.78452,-0.79186,-0.79815,-0.78996,-0.7906,-0.77835,-0.78937,-0.79495,-0.78252,-0.77934,-0.78228,-0.78159,-0.78183,-0.78454,-0.77894,-0.78381,-0.77895,-0.7757,-0.77547,-0.77287,-0.7746,-0.77554,-0.77675,-0.77135,-0.77181,-0.77341,-0.76286,-0.76137,-0.7637,-0.76342,-0.7646,-0.76745,-0.76851,-0.77038,-0.76288,-0.76573,-0.76292
-0.77639,-0.77653,-0.77336,-0.77165,-0.77875,-0.78053,-0.77899,-0.77407,-0.77607,-0.77872,-0.77703,-0.77589,-0.7755,-0.78265,-0.78171,-0.78115,-0.78512,-0.78094,-0.78667,-0.77929,-0.78263,-0.79191,-0.78644,-0.78584,-0.79024,-0.79169,-0.78581,-0.79243,-0.79041,-0.79259,-0.79256,-0.79225,-0.7886,-0.79754,-0.79844,-0.79961,-0.80367,-0.80238,-0.79891,-0.8011,-0.80741,-0.80437,-0.80891,-0.80294,-0.80076,-0.81045,-0.81155,-0.80795,-0.80737,-0.80692,-0.81057,-0.80625,-0.80514,-0.81779,-0.82362,-0.82224,-0.82031,-0.82031,-0.82415,-0.81884,-0.82246,-0.82295,-0.8221,-0.83012,-0.83171,-0.83546,-0.83565,-0.83027,-0.83457,-0.83316,-0.84233,-0.84755,-0.83624,-0.83822,-0.84481,-0.83555,-0.84804,-0.85267,-0.8443,-0.84472,-0.85166,-0.84355,-0.84026,-0.8499,-0.84849,-0.84868,-0.84995,-0.85238,-0.8543,-0.85511,-0.85892,-0.86579,-0.87148,-0.85616,-0.85385,-0.86536,-0.87316,-0.87233,-0.88017,-0.87926,-0.87671,-0.88643,-0.87869,-0.87275,-0.88648,-0.88855,-0.88306,-0.88032,-0.88278,-0.88989,-0.88397,-0.88299,-0.89285,-0.89838,-0.89608,-0.89293,-0.89967,-0.89532,-0.88806,-0.89808,-0.9026,-0.89368,-0.89812,-0.91152,-0.91111,-0.91527,-0.90929,-0.96042,-0.95644,-0.90192,-0.91066,-0.90018,-0.88444,-0.89213,-0.90366,-0.90941,-0.90988,-0.89162,-0.89081,-0.90177,-0.8819,-0.86867,-0.87833,-0.87827,-0.87682,-0.88851,-0.89365,-0.87963,-0.89867,-0.88354,-0.88055,-0.87622,-0.87055,-0.86047,-0.88109,-0.8784,-0.86324,-0.86702,-0.87477,-0.87861,-0.86616,-0.86687,-0.86498,-0.86408,-0.85938,-0.84435,-0.83916,-0.85033,-0.86038,-0.8499,-0.84897,-0.8412,-0.84662,-0.83712,-0.8408,-0.8455,-0.84942,-0.83093,-0.83725,-0.8481,-0.83633,-0.82547,-0.82615,-0.83394,-0.82214,-0.83312,-0.83515,-0.83564,-0.82505,-0.82144,-0.81817,-0.81753,-0.8151,-0.81037,-0.81601,-0.82566,-0.82128,-0.80689,-0.81404,-0.81486,-0.8022,-0.80537,-0.80482,-0.80471,-0.8046,-0.79817,-0.80737,-0.81433,-0.8078,-0.80707,-0.80355,-0.8047,-0.79892,-0.80421,-0.81089,-0.79766,-0.78578,-0.79587,-0.79188,-0.77905,-0.79206,-0.79322,-0.79571,-0.79332,-0.78469,-0.79716,-0.7976,-0.78341,-0.77928,-0.78469,-0.78107,-0.7858,-0.77929,-0.77875,-0.77871,-0.78094,-0.77759,-0.76822,-0.77795,-0.77494,-0.77428,-0.77084,-0.76548,-0.77157,-0.77265,-0.77197,-0.76664,-0.76396,-0.7632,-0.7665,-0.76439,-0.7694,-0.76808,-0.76097,-0.75866,-0.76083
-0.77656,-0.77955,-0.77849,-0.77314,-0.77562,-0.78123,-0.77625,-0.77438,-0.77968,-0.77808,-0.7789,-0.77775,-0.78088,-0.7828,-0.78271,-0.78886,-0.78339,-0.78336,-0.78696,-0.77894,-0.78309,-0.79319,-0.78978,-0.78715,-0.79945,-0.79193,-0.78876,-0.79223,-0.79157,-0.79374,-0.79678,-0.79729,-0.79655,-0.79328,-0.79929,-0.7976,-0.80193,-0.79517,-0.79741,-0.80191,-0.80847,-0.80884,-0.80125,-0.8041,-0.80444,-0.81232,-0.81488,-0.8044,-0.80736,-0.81609,-0.82523,-0.81071,-0.81136,-0.81807,-0.82077,-0.82135,-0.82031,-0.82685,-0.82985,-0.82026,-0.81752,-0.8207,-0.82383,-0.82815,-0.81975,-0.82588,-0.83769,-0.84034,-0.84172,-0.83506,-0.83149,-0.84125,-0.8407,-0.83259,-0.84287,-0.84447,-0.84444,-0.84671,-0.84147,-0.84721,-0.84421,-0.84858,-0.85425,-0.85859,-0.85719,-0.85436,-0.85745,-0.86433,-0.85896,-0.86313,-0.85374,-0.86562,-0.87215,-0.85927,-0.87196,-0.86141,-0.86466,-0.87617,-0.87888,-0.87331,-0.87856,-0.88783,-0.87622,-0.88165,-0.87855,-0.8871,-0.8829,-0.88207,-0.88741,-0.89751,-0.8913,-0.88799,-0.89011,-0.90353,-0.89755,-0.89425,-0.90142,-0.89509,-0.89264,-0.90316,-0.90603,-0.90453,-0.90517,-0.90521,-0.90412,-0.90899,-0.9122,-0.96033,-0.95527,-0.91431,-0.90086,-0.90337,-0.89253,-0.89084,-0.89959,-0.91617,-0.92143,-0.91128,-0.90752,-0.90231,-0.891,-0.86498,-0.88385,-0.88071,-0.89429,-0.88755,-0.8736,-0.87559,-0.89599,-0.87861,-0.87026,-0.87903,-0.86486,-0.86629,-0.87105,-0.8682,-0.87274,-0.88246,-0.87583,-0.87396,-0.86036,-0.8622,-0.86399,-0.86494,-0.8517,-0.86378,-0.84897,-0.84765,-0.85883,-0.84426,-0.84866,-0.83917,-0.85604,-0.83938,-0.85031,-0.8539,-0.85484,-0.84856,-0.83937,-0.82898,-0.82918,-0.8231,-0.82842,-0.83647,-0.83192,-0.83968,-0.8319,-0.82965,-0.82471,-0.82119,-0.82056,-0.82173,-0.81476,-0.81968,-0.81923,-0.82696,-0.81934,-0.81532,-0.81297,-0.81394,-0.80256,-0.80993,-0.8089,-0.80351,-0.7992,-0.79701,-0.80705,-0.81333,-0.80992,-0.79578,-0.79363,-0.78841,-0.7932,-0.79948,-0.80901,-0.79346,-0.79533,-0.79782,-0.79009,-0.78999,-0.79061,-0.7934,-0.7983,-0.79394,-0.79101,-0.78711,-0.78753,-0.78223,-0.78181,-0.78515,-0.78485,-0.77872,-0.77867,-0.78036,-0.78135,-0.77782,-0.7792,-0.77533,-0.77984,-0.78136,-0.77867,-0.77271,-0.76723,-0.76818,-0.76966,-0.77576,-0.77323,-0.7693,-0.7619,-0.76844,-0.76712,-0.76456,-0.76381,-0.76332,-0.752,-0.75862
-0.77567,-0.77207,-0.77585,-0.77503,-0.77513,-0.77655,-0.77829,-0.77777,-0.77698,-0.77816,-0.78247,-0.77834,-0.78029,-0.78033,-0.78151,-0.78706,-0.78518,-0.78491,-0.78487,-0.77861,-0.78422,-0.78832,-0.78664,-0.78733,-0.79403,-0.79265,-0.79115,-0.79352,-0.80137,-0.79689,-0.79736,-0.79865,-0.79718,-0.79476,-0.80398,-0.80223,-0.79135,-0.79603,-0.8043,-0.80968,-0.80608,-0.80728,-0.8039,-0.80528,-0.80697,-0.81446,-0.81013,-0.80341,-0.80965,-0.81554,-0.81612,-0.82251,-0.82914,-0.81809,-0.81698,-0.81228,-0.8178,-0.82499,-0.83389,-0.83202,-0.8225,-0.82686,-0.83196,-0.83699,-0.83572,-0.83087,-0.82735,-0.83933,-0.83747,-0.83214,-0.83177,-0.84179,-0.84469,-0.83649,-0.84198,-0.85643,-0.85237,-0.84258,-0.8432,-0.84998,-0.84353,-0.85006,-0.85353,-0.85169,-0.8583,-0.86225,-0.86893,-0.86512,-0.85765,-0.8691,-0.86623,-0.86762,-0.86055,-0.85891,-0.87428,-0.87133,-0.86679,-0.87482,-0.8744,-0.87451,-0.87486,-0.86799,-0.87639,-0.88488,-0.877,-0.88196,-0.87629,-0.87699,-0.8823,-0.88962,-0.88775,-0.90614,-0.89749,-0.89499,-0.8995,-0.89067,-0.90536,-0.89165,-0.90884,-0.91714,-0.90425,-0.9094,-0.90768,-0.90388,-0.90729,-0.90669,-0.90947,-0.95727,-0.96516,-0.9192,-0.90745,-0.90639,-0.88421,-0.89091,-0.90977,-0.9108,-0.90282,-0.89999,-0.89669,-0.9107,-0.90672,-0.8793,-0.88462,-0.86916,-0.88059,-0.88572,-0.88316,-0.8823,-0.88829,-0.87859,-0.87381,-0.88653,-0.87598,-0.87628,-0.87454,-0.87148,-0.87146,-0.88023,-0.86863,-0.86195,-0.85747,-0.86969,-0.85235,-0.87341,-0.85566,-0.85985,-0.86267,-0.85827,-0.85684,-0.85557,-0.86416,-0.8641,-0.85205,-0.84173,-0.84697,-0.85219,-0.84916,-0.85111,-0.84905,-0.8291,-0.8369,-0.82994,-0.83631,-0.83366,-0.83341,-0.82904,-0.83315,-0.83113,-0.8279,-0.82957,-0.82826,-0.83325,-0.81997,-0.81611,-0.8199,-0.81688,-0.82195,-0.82307,-0.81054,-0.81021,-0.80466,-0.8137,-0.80768,-0.8092,-0.81149,-0.80651,-0.8111,-0.80751,-0.8075,-0.80374,-0.79735,-0.79352,-0.79966,-0.79231,-0.80085,-0.80521,-0.80142,-0.79517,-0.79575,-0.78785,-0.78911,-0.79468,-0.79542,-0.7888,-0.78644,-0.78172,-0.79236,-0.79016,-0.78077,-0.79003,-0.7815,-0.77645,-0.7733,-0.77774,-0.78335,-0.7825,-0.77429,-0.77778,-0.77322,-0.77477,-0.77306,-0.76918,-0.76844,-0.77269,-0.76864,-0.7665,-0.77273,-0.77146,-0.76734,-0.77008,-0.76233,-0.76618,-0.76581,-0.76606,-0.75839,-0.7621
-0.77837,-0.77525,-0.77243,-0.76987,-0.77,-0.77249,-0.77798,-0.78096,-0.77671,-0.77527,-0.7782,-0.77896,-0.78259,-0.78092,-0.78276,-0.78239,-0.78739,-0.7863,-0.78427,-0.78515,-0.78497,-0.78491,-0.78678,-0.78321,-0.78953,-0.78741,-0.78771,-0.79464,-0.7985,-0.79597,-0.79228,-0.79546,-0.79584,-0.79586,-0.79955,-0.80365,-0.79286,-0.79612,-0.80279,-0.79941,-0.79947,-0.80526,-0.80134,-0.80636,-0.80789,-0.80592,-0.81381,-0.81021,-0.81105,-0.81442,-0.81412,-0.81722,-0.82385,-0.81338,-0.82002,-0.81776,-0.81588,-0.81673,-0.82306,-0.82413,-0.81906,-0.82901,-0.82761,-0.83384,-0.83764,-0.83404,-0.8295,-0.83445,-0.83626,-0.82523,-0.83394,-0.8423,-0.84398,-0.84177,-0.83843,-0.84255,-0.84585,-0.84458,-0.84545,-0.84812,-0.8404,-0.85386,-0.8559,-0.85779,-0.84724,-0.8585,-0.85882,-0.85183,-0.85618,-0.85674,-0.86218,-0.86458,-0.86779,-0.86125,-0.85837,-0.86645,-0.87271,-0.87331,-0.87935,-0.88379,-0.88013,-0.87094,-0.87055,-0.8892,-0.88567,-0.88561,-0.89008,-0.87879,-0.87745,-0.88853,-0.89848,-0.89849,-0.90311,-0.89664,-0.89426,-0.89112,-0.89825,-0.89307,-0.89368,-0.9101,-0.91276,-0.90384,-0.89793,-0.90385,-0.91341,-0.91064,-0.90779,-0.96621,-0.94274,-0.89679,-0.89806,-0.90323,-0.9031,-0.899,-0.89602,-0.90891,-0.89694,-0.89336,-0.88116,-0.90106,-0.88828,-0.88801,-0.89458,-0.88797,-0.87792,-0.87563,-0.87852,-0.89279,-0.8929,-0.88159,-0.8712,-0.87362,-0.85259,-0.86563,-0.88325,-0.88515,-0.87813,-0.87268,-0.86569,-0.85621,-0.85646,-0.86128,-0.8537,-0.86567,-0.85337,-0.85521,-0.87166,-0.85407,-0.85274,-0.86422,-0.86154,-0.85471,-0.84828,-0.84885,-0.85801,-0.84484,-0.83287,-0.83087,-0.84402,-0.83654,-0.84074,-0.84446,-0.84788,-0.82786,-0.82052,-0.82842,-0.82862,-0.82757,-0.82937,-0.8292,-0.82446,-0.82657,-0.82265,-0.82511,-0.82649,-0.81566,-0.81432,-0.82313,-0.80718,-0.81638,-0.81783,-0.81628,-0.80788,-0.79891,-0.80418,-0.81081,-0.80742,-0.79938,-0.80945,-0.81333,-0.80525,-0.80687,-0.80528,-0.79609,-0.80086,-0.81193,-0.79609,-0.7988,-0.7961,-0.79257,-0.79044,-0.79287,-0.78938,-0.78872,-0.78548,-0.7867,-0.79339,-0.79029,-0.78526,-0.78234,-0.77633,-0.78474,-0.77241,-0.77989,-0.77568,-0.7745,-0.77709,-0.77999,-0.77952,-0.7715,-0.77548,-0.76954,-0.77503,-0.77581,-0.767,-0.76956,-0.76864,-0.7625,-0.76571,-0.77273,-0.76822,-0.76933,-0.77063,-0.76965,-0.76591,-0.76971
-0.77551,-0.77123,-0.76829,-0.77448,-0.77368,-0.77656,-0.77606,-0.77375,-0.77916,-0.78027,-0.7786,-0.77787,-0.78273,-0.78157,-0.77847,-0.7801,-0.78796,-0.78666,-0.78121,-0.78335,-0.78614,-0.78766,-0.78725,-0.78803,-0.79276,-0.79343,-0.79145,-0.79468,-0.80012,-0.79476,-0.79926,-0.79859,-0.79839,-0.79131,-0.80102,-0.79984,-0.79685,-0.79582,-0.80057,-0.79838,-0.80656,-0.80689,-0.81175,-0.81403,-0.80959,-0.80989,-0.81206,-0.81186,-0.81245,-0.81581,-0.81554,-0.81338,-0.8117,-0.81779,-0.8181,-0.81449,-0.81645,-0.81616,-0.82168,-0.82848,-0.82873,-0.83089,-0.82466,-0.82924,-0.82707,-0.82134,-0.82537,-0.83613,-0.8376,-0.83177,-0.83713,-0.84409,-0.82984,-0.84029,-0.84718,-0.8446,-0.83892,-0.85047,-0.85212,-0.85312,-0.86056,-0.8546,-0.85769,-0.85836,-0.85191,-0.861,-0.85949,-0.85757,-0.85924,-0.85972,-0.85433,-0.86922,-0.86372,-0.86383,-0.8687,-0.86122,-0.85577,-0.87402,-0.88113,-0.87022,-0.88841,-0.88671,-0.88113,-0.88167,-0.87928,-0.90133,-0.89922,-0.88125,-0.88522,-0.88563,-0.90038,-0.89432,-0.90145,-0.89585,-0.89073,-0.89595,-0.89876,-0.89739,-0.88379,-0.90379,-0.91965,-0.91191,-0.90497,-0.90879,-0.91101,-0.9105,-0.91922,-0.9674,-0.95079,-0.90942,-0.91214,-0.89589,-0.89228,-0.89435,-0.8877,-0.90609,-0.9041,-0.88705,-0.8807,-0.89198,-0.89804,-0.8929,-0.88475,-0.90051,-0.89253,-0.88249,-0.87788,-0.88149,-0.8833,-0.88654,-0.87742,-0.87356,-0.86521,-0.869,-0.86268,-0.872,-0.87958,-0.8654,-0.85664,-0.86693,-0.86863,-0.85954,-0.86077,-0.85863,-0.85656,-0.85193,-0.84609,-0.85303,-0.85822,-0.85378,-0.847,-0.8522,-0.85167,-0.84715,-0.8459,-0.82823,-0.84052,-0.84503,-0.82776,-0.83107,-0.83932,-0.83595,-0.83238,-0.82751,-0.82868,-0.83148,-0.82887,-0.82411,-0.82871,-0.83432,-0.81469,-0.82073,-0.82646,-0.8302,-0.82866,-0.82567,-0.81675,-0.82177,-0.81066,-0.80923,-0.81384,-0.81255,-0.80791,-0.80888,-0.81525,-0.82287,-0.81048,-0.79739,-0.80664,-0.80351,-0.80358,-0.80295,-0.80612,-0.79789,-0.80188,-0.80691,-0.79993,-0.79639,-0.79742,-0.79582,-0.78726,-0.79005,-0.78893,-0.78844,-0.77939,-0.78363,-0.7938,-0.78651,-0.78318,-0.79076,-0.78501,-0.78517,-0.78232,-0.78275,-0.77422,-0.78508,-0.78301,-0.78092,-0.786,-0.77416,-0.77262,-0.77672,-0.77294,-0.76887,-0.77332,-0.77804,-0.7756,-0.76983,-0.76713,-0.76991,-0.76349,-0.76504,-0.77053,-0.76908,-0.76494,-0.75892
-0.76878,-0.76979,-0.76901,-0.77591,-0.7751,-0.77899,-0.77692,-0.77601,-0.78258,-0.77944,-0.7788,-0.78216,-0.78298,-0.78236,-0.77843,-0.78307,-0.78737,-0.78135,-0.78157,-0.78395,-0.78925,-0.79251,-0.78635,-0.78964,-0.7936,-0.79291,-0.79213,-0.79354,-0.79409,-0.78978,-0.79579,-0.79557,-0.79573,-0.7981,-0.79869,-0.79932,-0.79562,-0.79968,-0.80626,-0.80294,-0.80689,-0.80484,-0.80503,-0.81515,-0.81038,-0.80955,-0.814,-0.81217,-0.81047,-0.81046,-0.81083,-0.81836,-0.81726,-0.82108,-0.82046,-0.82991,-0.82135,-0.82548,-0.8306,-0.82984,-0.82815,-0.82976,-0.82059,-0.81895,-0.82922,-0.82919,-0.82861,-0.83664,-0.84853,-0.84253,-0.84111,-0.84356,-0.83042,-0.83718,-0.84172,-0.84552,-0.84473,-0.84433,-0.85747,-0.85314,-0.85911,-0.85014,-0.85571,-0.85639,-0.84921,-0.85047,-0.85291,-0.85879,-0.86062,-0.86455,-0.87504,-0.87976,-0.87111,-0.86779,-0.86285,-0.86084,-0.86806,-0.87004,-0.88183,-0.87448,-0.87713,-0.87925,-0.86938,-0.87086,-0.88237,-0.89081,-0.87955,-0.89019,-0.88963,-0.88272,-0.88618,-0.89944,-0.90092,-0.89981,-0.88376,-0.89565,-0.90606,-0.89507,-0.89439,-0.90545,-0.9048,-0.91202,-0.91012,-0.91201,-0.92278,-0.92456,-0.92381,-0.96454,-0.95678,-0.90294,-0.91371,-0.88615,-0.89774,-0.89727,-0.88468,-0.90572,-0.90182,-0.89084,-0.8855,-0.89332,-0.89204,-0.88445,-0.87713,-0.89324,-0.89935,-0.88887,-0.89154,-0.88775,-0.8934,-0.88633,-0.88282,-0.88179,-0.87542,-0.87565,-0.87005,-0.86455,-0.86513,-0.86827,-0.86229,-0.87745,-0.87226,-0.8565,-0.85889,-0.87585,-0.86397,-0.85563,-0.85214,-0.86275,-0.8634,-0.84764,-0.85261,-0.84666,-0.84495,-0.84235,-0.84234,-0.84001,-0.83886,-0.83157,-0.82738,-0.82934,-0.83645,-0.83895,-0.82482,-0.8391,-0.83905,-0.83977,-0.82342,-0.82279,-0.82597,-0.83345,-0.8253,-0.81137,-0.81732,-0.81915,-0.81732,-0.81796,-0.81708,-0.82038,-0.81474,-0.81795,-0.81501,-0.81227,-0.81674,-0.80663,-0.8042,-0.80606,-0.80885,-0.8122,-0.80988,-0.80385,-0.80779,-0.80472,-0.8054,-0.79531,-0.79325,-0.79553,-0.80139,-0.79737,-0.79737,-0.79404,-0.7909,-0.79261,-0.79264,-0.78607,-0.78529,-0.78637,-0.78765,-0.79132,-0.79311,-0.78431,-0.78151,-0.78278,-0.77875,-0.77723,-0.77274,-0.77738,-0.77945,-0.77494,-0.77317,-0.78066,-0.77854,-0.77881,-0.76547,-0.77008,-0.77802,-0.77043,-0.77162,-0.77314,-0.76848,-0.76333,-0.76157,-0.76697,-0.76522,-0.76224,-0.76041,-0.75953
-0.77456,-0.77892,-0.77826,-0.77421,-0.77198,-0.77536,-0.77754,-0.77782,-0.7806,-0.77664,-0.78352,-0.78475,-0.78446,-0.78198,-0.78166,-0.77916,-0.78094,-0.78086,-0.78374,-0.7844,-0.78361,-0.78659,-0.78917,-0.78966,-0.78443,-0.79548,-0.79538,-0.79171,-0.79476,-0.79622,-0.79534,-0.79707,-0.79165,-0.79377,-0.79736,-0.79644,-0.79874,-0.80146,-0.8025,-0.79861,-0.80525,-0.80348,-0.80046,-0.80723,-0.81321,-0.81262,-0.8105,-0.80907,-0.81352,-0.81079,-0.82141,-0.81917,-0.81778,-0.81754,-0.82472,-0.8285,-0.81478,-0.82278,-0.82915,-0.82112,-0.82386,-0.826,-0.82385,-0.83353,-0.83195,-0.83317,-0.83616,-0.84001,-0.83504,-0.83365,-0.83996,-0.84684,-0.84102,-0.84179,-0.83826,-0.84929,-0.8458,-0.84673,-0.85107,-0.84047,-0.84683,-0.85493,-0.85805,-0.85169,-0.86273,-0.85964,-0.85268,-0.85532,-0.85782,-0.86667,-0.87431,-0.87226,-0.87263,-0.87149,-0.86989,-0.87685,-0.87684,-0.87678,-0.87128,-0.8685,-0.87292,-0.87528,-0.87774,-0.8785,-0.88553,-0.87548,-0.88084,-0.88708,-0.88544,-0.88014,-0.88229,-0.895,-0.8994,-0.89863,-0.89161,-0.89102,-0.90016,-0.90304,-0.89909,-0.90336,-0.91006,-0.90456,-0.89413,-0.91429,-0.91706,-0.91575,-0.91319,-0.96344,-0.94077,-0.9077,-0.91946,-0.9086,-0.90217,-0.90724,-0.9061,-0.90483,-0.89321,-0.89487,-0.90019,-0.90376,-0.89307,-0.87447,-0.87444,-0.88893,-0.88363,-0.88602,-0.89471,-0.89538,-0.89491,-0.89554,-0.88452,-0.88055,-0.88298,-0.86718,-0.87766,-0.86621,-0.87618,-0.88539,-0.87085,-0.85537,-0.86233,-0.86621,-0.86035,-0.87915,-0.86472,-0.8631,-0.86315,-0.85966,-0.84807,-0.85646,-0.85869,-0.85988,-0.85426,-0.84627,-0.83483,-0.84198,-0.84108,-0.84057,-0.85019,-0.8417,-0.8385,-0.82957,-0.82327,-0.83556,-0.83388,-0.83069,-0.83195,-0.83356,-0.82959,-0.83344,-0.83111,-0.81305,-0.81804,-0.82015,-0.82149,-0.81101,-0.81084,-0.81177,-0.82264,-0.81758,-0.81084,-0.81036,-0.81612,-0.80821,-0.80389,-0.79965,-0.80701,-0.81706,-0.81037,-0.80176,-0.79989,-0.80064,-0.80827,-0.79598,-0.79594,-0.80082,-0.79668,-0.79143,-0.79216,-0.79476,-0.79828,-0.79335,-0.79758,-0.787,-0.79061,-0.791,-0.78389,-0.78498,-0.77751,-0.78138,-0.77942,-0.77373,-0.78118,-0.77796,-0.77297,-0.77547,-0.77788,-0.77303,-0.77034,-0.77714,-0.77496,-0.77083,-0.76226,-0.7746,-0.77088,-0.76394,-0.77193,-0.77393,-0.7685,-0.77007,-0.77161,-0.76285,-0.76452,-0.76101,-0.76268,-0.76099
-0.77547,-0.77641,-0.77503,-0.77671,-0.77125,-0.77329,-0.77691,-0.77624,-0.77804,-0.77661,-0.78269,-0.78099,-0.77766,-0.78409,-0.78574,-0.78066,-0.78607,-0.78777,-0.78547,-0.78268,-0.78742,-0.79525,-0.79058,-0.79096,-0.78958,-0.79111,-0.7948,-0.79407,-0.80609,-0.79867,-0.79844,-0.80236,-0.79855,-0.7979,-0.79671,-0.80532,-0.8044,-0.80918,-0.81108,-0.80182,-0.80528,-0.80521,-0.80496,-0.805,-0.8096,-0.81542,-0.81159,-0.80967,-0.8129,-0.8189,-0.81611,-0.81474,-0.82056,-0.8225,-0.82363,-0.817,-0.81588,-0.82058,-0.82495,-0.82932,-0.8293,-0.8238,-0.82468,-0.83431,-0.83163,-0.8281,-0.83106,-0.8329,-0.82913,-0.83131,-0.83708,-0.84333,-0.83565,-0.84225,-0.83674,-0.8446,-0.84523,-0.85096,-0.863,-0.84753,-0.84167,-0.85258,-0.85617,-0.85436,-0.86609,-0.86504,-0.8515,-0.85579,-0.85326,-0.85862,-0.86397,-0.858,-0.86395,-0.86643,-0.86864,-0.87382,-0.87411,-0.87758,-0.87152,-0.87278,-0.87665,-0.88133,-0.88345,-0.88345,-0.88146,-0.88665,-0.88523,-0.89518,-0.88862,-0.88222,-0.89188,-0.88249,-0.88762,-0.91146,-0.904,-0.88316,-0.88904,-0.89909,-0.89063,-0.89323,-0.89984,-0.90278,-0.90248,-0.90645,-0.90638,-0.90361,-0.90975,-0.96459,-0.95201,-0.91162,-0.91686,-0.90944,-0.89868,-0.90989,-0.91341,-0.90023,-0.8927,-0.89536,-0.89594,-0.90579,-0.89941,-0.88221,-0.89777,-0.89896,-0.8808,-0.88449,-0.88555,-0.8748,-0.88191,-0.8918,-0.88621,-0.87978,-0.87076,-0.87172,-0.8706,-0.87372,-0.88284,-0.88362,-0.86107,-0.84577,-0.85684,-0.87275,-0.86651,-0.85896,-0.86739,-0.86081,-0.85327,-0.86093,-0.85872,-0.8552,-0.86595,-0.85492,-0.85083,-0.85563,-0.8473,-0.83882,-0.84766,-0.85737,-0.84046,-0.83383,-0.83114,-0.84117,-0.84196,-0.83547,-0.8246,-0.82193,-0.82241,-0.83665,-0.83374,-0.83236,-0.82393,-0.82487,-0.82639,-0.82881,-0.83031,-0.81621,-0.82575,-0.81176,-0.81198,-0.81414,-0.80652,-0.80945,-0.81205,-0.8092,-0.80278,-0.81462,-0.81447,-0.80774,-0.80162,-0.80301,-0.79728,-0.79259,-0.79511,-0.80007,-0.80201,-0.79541,-0.79207,-0.79556,-0.80153,-0.7978,-0.79256,-0.79104,-0.79448,-0.79567,-0.7903,-0.78592,-0.78893,-0.78676,-0.77616,-0.77569,-0.78114,-0.7764,-0.7815,-0.77838,-0.77316,-0.7784,-0.77552,-0.77544,-0.77526,-0.77646,-0.77571,-0.77154,-0.76705,-0.77119,-0.76776,-0.76755,-0.77246,-0.77103,-0.76577,-0.77176,-0.7695,-0.76244,-0.76104,-0.75836,-0.75788,-0.76822
-0.77029,-0.77369,-0.77328,-0.78107,-0.77522,-0.7779,-0.78109,-0.77772,-0.77995,-0.77839,-0.77644,-0.77826,-0.77468,-0.77657,-0.78512,-0.78247,-0.78366,-0.78554,-0.78933,-0.78407,-0.78914,-0.79958,-0.7905,-0.79091,-0.79093,-0.79493,-0.79498,-0.79495,-0.79879,-0.79417,-0.79284,-0.78973,-0.79559,-0.80223,-0.80011,-0.80672,-0.80037,-0.80358,-0.81471,-0.80375,-0.80717,-0.80743,-0.80747,-0.81066,-0.80935,-0.81295,-0.81127,-0.81271,-0.81334,-0.81388,-0.81128,-0.81197,-0.81281,-0.82193,-0.82467,-0.82,-0.81446,-0.82059,-0.82733,-0.82897,-0.82925,-0.82899,-0.8244,-0.82975,-0.83395,-0.83483,-0.83856,-0.83609,-0.83103,-0.83459,-0.84469,-0.8379,-0.82525,-0.84033,-0.8531,-0.85138,-0.84451,-0.84892,-0.856,-0.84933,-0.84931,-0.85804,-0.8603,-0.85309,-0.85582,-0.85727,-0.86022,-0.86605,-0.86212,-0.86436,-0.86618,-0.86614,-0.86223,-0.86046,-0.86966,-0.87361,-0.86896,-0.86661,-0.86678,-0.87964,-0.8845,-0.87853,-0.87233,-0.88161,-0.88596,-0.88388,-0.88556,-0.8861,-0.89275,-0.88941,-0.89687,-0.89853,-0.89621,-0.89995,-0.89324,-0.89855,-0.8999,-0.90472,-0.89161,-0.89932,-0.89916,-0.90345,-0.9036,-0.90852,-0.90931,-0.91031,-0.90813,-0.95138,-0.95544,-0.90389,-0.8972,-0.90042,-0.90427,-0.89677,-0.89725,-0.90162,-0.89683,-0.88636,-0.90367,-0.90104,-0.88874,-0.88505,-0.88699,-0.88341,-0.87466,-0.88726,-0.88447,-0.87478,-0.87503,-0.87115,-0.8717,-0.87084,-0.86493,-0.87784,-0.87514,-0.87028,-0.86505,-0.8627,-0.8647,-0.86697,-0.86276,-0.86445,-0.86823,-0.85413,-0.86063,-0.85975,-0.85141,-0.85344,-0.8488,-0.85528,-0.85791,-0.85632,-0.84028,-0.85214,-0.85753,-0.84682,-0.84945,-0.85071,-0.83345,-0.84347,-0.84254,-0.84479,-0.84258,-0.85121,-0.8402,-0.82612,-0.81894,-0.83255,-0.83464,-0.82928,-0.8262,-0.83119,-0.82606,-0.82366,-0.81654,-0.81925,-0.82847,-0.80955,-0.80855,-0.81376,-0.80899,-0.81524,-0.80849,-0.81591,-0.8087,-0.81202,-0.81884,-0.81388,-0.80592,-0.80342,-0.80555,-0.79964,-0.79546,-0.80162,-0.80115,-0.78439,-0.78964,-0.79762,-0.79288,-0.79544,-0.78566,-0.7929,-0.79599,-0.79859,-0.79875,-0.79232,-0.78824,-0.78439,-0.77926,-0.77905,-0.78325,-0.77663,-0.78266,-0.77949,-0.77931,-0.77309,-0.776,-0.77408,-0.77471,-0.77758,-0.77097,-0.77069,-0.77156,-0.76912,-0.7706,-0.76731,-0.77259,-0.77074,-0.76586,-0.76983,-0.7683,-0.76443,-0.76613,-0.7684,-0.76113,-0.76891
-0.7709,-0.77313,-0.77176,-0.77314,-0.77411,-0.77417,-0.77825,-0.77889,-0.78096,-0.77836,-0.78008,-0.78318,-0.78242,-0.78374,-0.78151,-0.7767,-0.7815,-0.78646,-0.79166,-0.78897,-0.78784,-0.7947,-0.7913,-0.79084,-0.78637,-0.78953,-0.79184,-0.79321,-0.79773,-0.79562,-0.79362,-0.79474,-0.79556,-0.79954,-0.80142,-0.80373,-0.79937,-0.80061,-0.80596,-0.80212,-0.81053,-0.80577,-0.81274,-0.80815,-0.80111,-0.81462,-0.81297,-0.81535,-0.80748,-0.80292,-0.81444,-0.81553,-0.81314,-0.81615,-0.81945,-0.82194,-0.82086,-0.82331,-0.82168,-0.82409,-0.82842,-0.82416,-0.82316,-0.83326,-0.83303,-0.83003,-0.83822,-0.83454,-0.83839,-0.83577,-0.83612,-0.83525,-0.8422,-0.83551,-0.84453,-0.85071,-0.85074,-0.83329,-0.85036,-0.85009,-0.85401,-0.85116,-0.85237,-0.85364,-0.85929,-0.85147,-0.86058,-0.85586,-0.8576,-0.86171,-0.87293,-0.86915,-0.86524,-0.86855,-0.87501,-0.87938,-0.87606,-0.8716,-0.87529,-0.88592,-0.88225,-0.87782,-0.87944,-0.88154,-0.88669,-0.88221,-0.87572,-0.88353,-0.88218,-0.88495,-0.88929,-0.8968,-0.89588,-0.89029,-0.89332,-0.90386,-0.90124,-0.90012,-0.89597,-0.90274,-0.90412,-0.9064,-0.90699,-0.90929,-0.91411,-0.91538,-0.91615,-0.96266,-0.94092,-0.8918,-0.90238,-0.90342,-0.90091,-0.89983,-0.89658,-0.89457,-0.89287,-0.88429,-0.8895,-0.90067,-0.90171,-0.89443,-0.89445,-0.88885,-0.8779,-0.89095,-0.88835,-0.8829,-0.87793,-0.87453,-0.88409,-0.87596,-0.88758,-0.88142,-0.87509,-0.85859,-0.85848,-0.85856,-0.86281,-0.8567,-0.84962,-0.85716,-0.86633,-0.86369,-0.84842,-0.85388,-0.85592,-0.85276,-0.85127,-0.85536,-0.85662,-0.85893,-0.86331,-0.85695,-0.85158,-0.84744,-0.84582,-0.83685,-0.8252,-0.8384,-0.8449,-0.84852,-0.84537,-0.84383,-0.83397,-0.83224,-0.84004,-0.82938,-0.83064,-0.83234,-0.82659,-0.82996,-0.82486,-0.82757,-0.81736,-0.80872,-0.82442,-0.82085,-0.81615,-0.81453,-0.81359,-0.81213,-0.81378,-0.81772,-0.81085,-0.80981,-0.81508,-0.81256,-0.80466,-0.80486,-0.80078,-0.79715,-0.79731,-0.8021,-0.8013,-0.79003,-0.80169,-0.79202,-0.78512,-0.79178,-0.79156,-0.80144,-0.7915,-0.7882,-0.79068,-0.79246,-0.78461,-0.78532,-0.78641,-0.78714,-0.785,-0.78068,-0.78752,-0.78124,-0.77601,-0.77448,-0.77544,-0.7752,-0.77487,-0.7768,-0.77075,-0.77767,-0.78152,-0.77761,-0.76666,-0.76786,-0.77116,-0.76908,-0.76564,-0.76771,-0.76694,-0.76794,-0.7695,-0.76943,-0.76313,-0.76262
-0.77573,-0.77332,-0.77052,-0.77244,-0.77411,-0.778,-0.77988,-0.77731,-0.78125,-0.77623,-0.77797,-0.78046,-0.78235,-0.7804,-0.77903,-0.77409,-0.78264,-0.78726,-0.78977,-0.7873,-0.78529,-0.78816,-0.78965,-0.78605,-0.79014,-0.79274,-0.7953,-0.79522,-0.7963,-0.80428,-0.79825,-0.79525,-0.79663,-0.80276,-0.80363,-0.79996,-0.80227,-0.8017,-0.80278,-0.80904,-0.80889,-0.80502,-0.8041,-0.80412,-0.80616,-0.81236,-0.8138,-0.81658,-0.81668,-0.81026,-0.82081,-0.81477,-0.81972,-0.82389,-0.8247,-0.82167,-0.81674,-0.8225,-0.82027,-0.81807,-0.82523,-0.82709,-0.83308,-0.82245,-0.82048,-0.82626,-0.83635,-0.83739,-0.83845,-0.83184,-0.8309,-0.84352,-0.85213,-0.84321,-0.84528,-0.84786,-0.85042,-0.84803,-0.84729,-0.84736,-0.85408,-0.85088,-0.85455,-0.85606,-0.86216,-0.85406,-0.8518,-0.85286,-0.85584,-0.86704,-0.86967,-0.87072,-0.86961,-0.8704,-0.87333,-0.87374,-0.87722,-0.88074,-0.88042,-0.8725,-0.87128,-0.87046,-0.87502,-0.88,-0.8924,-0.88188,-0.88481,-0.88769,-0.88697,-0.88778,-0.88988,-0.89041,-0.88944,-0.89253,-0.89282,-0.89403,-0.90319,-0.90783,-0.89788,-0.90574,-0.91299,-0.91119,-0.91149,-0.91278,-0.91581,-0.89913,-0.90809,-0.96145,-0.95167,-0.91299,-0.90673,-0.89003,-0.90337,-0.89739,-0.8932,-0.89701,-0.89172,-0.89175,-0.88232,-0.88435,-0.88844,-0.8957,-0.8949,-0.89587,-0.88966,-0.8906,-0.88718,-0.88649,-0.88619,-0.87501,-0.88264,-0.87632,-0.87534,-0.87541,-0.87633,-0.85708,-0.85919,-0.88042,-0.88152,-0.85576,-0.85322,-0.86567,-0.8631,-0.84176,-0.85328,-0.85202,-0.8577,-0.85736,-0.84785,-0.84775,-0.85672,-0.85414,-0.85408,-0.85655,-0.85104,-0.84533,-0.83639,-0.83511,-0.82745,-0.8278,-0.83896,-0.83056,-0.83593,-0.83415,-0.83569,-0.82875,-0.83058,-0.83569,-0.82308,-0.82057,-0.81719,-0.82012,-0.81398,-0.81675,-0.82158,-0.82233,-0.82902,-0.82879,-0.81564,-0.8175,-0.80761,-0.80674,-0.81302,-0.8119,-0.806,-0.80319,-0.79898,-0.80663,-0.81861,-0.81109,-0.80564,-0.79661,-0.79175,-0.80255,-0.80057,-0.80419,-0.81197,-0.79636,-0.78981,-0.78427,-0.79461,-0.79245,-0.78696,-0.79301,-0.79279,-0.79147,-0.78619,-0.78801,-0.78327,-0.7919,-0.78973,-0.78419,-0.78525,-0.78143,-0.7766,-0.77881,-0.77876,-0.77859,-0.77347,-0.77125,-0.77212,-0.77344,-0.77352,-0.76349,-0.77239,-0.77531,-0.76878,-0.76887,-0.76908,-0.77052,-0.76204,-0.76872,-0.77139,-0.76583,-0.76259,-0.76312
-0.77269,-0.77399,-0.77581,-0.77554,-0.7744,-0.77083,-0.77402,-0.77752,-0.77955,-0.78085,-0.77699,-0.77288,-0.77973,-0.77966,-0.78883,-0.78694,-0.78552,-0.78553,-0.78609,-0.79132,-0.79,-0.78673,-0.7888,-0.79192,-0.79225,-0.79572,-0.79792,-0.7966,-0.79592,-0.79841,-0.79471,-0.79659,-0.79846,-0.80221,-0.80636,-0.80287,-0.80001,-0.79991,-0.80317,-0.80775,-0.80836,-0.81011,-0.80329,-0.8087,-0.81062,-0.8118,-0.80967,-0.81694,-0.82307,-0.82104,-0.82003,-0.81252,-0.82106,-0.82847,-0.81976,-0.81865,-0.82169,-0.83014,-0.82575,-0.81505,-0.82577,-0.82899,-0.83382,-0.82322,-0.83218,-0.83273,-0.83562,-0.83848,-0.83907,-0.83571,-0.83573,-0.84254,-0.84899,-0.84459,-0.84506,-0.84319,-0.84729,-0.85353,-0.84914,-0.84884,-0.85788,-0.86008,-0.86615,-0.85659,-0.85904,-0.86971,-0.86594,-0.86063,-0.85386,-0.86275,-0.85923,-0.86375,-0.85848,-0.85953,-0.86672,-0.87362,-0.87464,-0.8771,-0.87247,-0.8756,-0.8711,-0.87699,-0.88677,-0.88915,-0.87721,-0.88434,-0.88913,-0.88801,-0.87915,-0.88724,-0.89841,-0.88352,-0.89085,-0.89901,-0.89881,-0.89733,-0.89576,-0.90434,-0.89964,-0.90255,-0.91106,-0.90926,-0.91225,-0.91363,-0.91743,-0.90918,-0.90746,-0.96107,-0.94388,-0.91276,-0.90313,-0.89125,-0.9036,-0.9017,-0.88904,-0.90027,-0.90375,-0.89708,-0.90827,-0.89748,-0.87246,-0.8868,-0.89413,-0.90415,-0.89683,-0.89117,-0.88981,-0.88423,-0.88682,-0.88763,-0.87781,-0.88882,-0.88802,-0.87414,-0.88615,-0.87787,-0.87325,-0.87504,-0.87471,-0.86474,-0.85774,-0.86149,-0.86345,-0.84954,-0.85681,-0.86035,-0.85273,-0.85212,-0.84907,-0.85691,-0.85996,-0.84592,-0.83483,-0.84174,-0.84524,-0.84421,-0.84079,-0.82853,-0.83521,-0.83363,-0.83053,-0.82494,-0.83031,-0.83529,-0.83196,-0.82814,-0.83775,-0.84065,-0.82894,-0.81969,-0.8278,-0.83184,-0.82723,-0.81941,-0.81905,-0.82618,-0.8184,-0.81504,-0.80684,-0.81452,-0.81444,-0.80702,-0.80481,-0.80769,-0.81446,-0.81558,-0.79991,-0.80273,-0.8142,-0.80731,-0.7997,-0.80279,-0.8022,-0.79947,-0.80655,-0.8001,-0.79516,-0.80119,-0.79927,-0.79343,-0.79679,-0.7842,-0.79237,-0.79164,-0.78892,-0.79015,-0.78524,-0.78632,-0.78794,-0.79044,-0.78924,-0.78313,-0.78332,-0.77542,-0.77683,-0.78119,-0.77533,-0.77681,-0.77433,-0.7829,-0.77554,-0.77485,-0.77377,-0.77386,-0.77508,-0.77485,-0.76964,-0.76986,-0.76795,-0.77257,-0.7699,-0.77631,-0.76933,-0.76975,-0.7665,-0.76124
-0.77626,-0.77483,-0.77359,-0.77775,-0.77843,-0.7743,-0.77192,-0.77413,-0.77696,-0.77811,-0.77289,-0.77601,-0.78575,-0.78521,-0.78733,-0.78204,-0.78543,-0.78877,-0.785,-0.78883,-0.79138,-0.78931,-0.79179,-0.79026,-0.78847,-0.79463,-0.8016,-0.79625,-0.79509,-0.79336,-0.78948,-0.79832,-0.80491,-0.80385,-0.80353,-0.80716,-0.80038,-0.80176,-0.80179,-0.80035,-0.80861,-0.81258,-0.80612,-0.80932,-0.80533,-0.80425,-0.8102,-0.81795,-0.81331,-0.81278,-0.80882,-0.81274,-0.82031,-0.81891,-0.81363,-0.82332,-0.82278,-0.82329,-0.82825,-0.82463,-0.82492,-0.82656,-0.82433,-0.83003,-0.83593,-0.83344,-0.83373,-0.83318,-0.83935,-0.84089,-0.83763,-0.83942,-0.84425,-0.84373,-0.84773,-0.83555,-0.8432,-0.84827,-0.84783,-0.85273,-0.85166,-0.85695,-0.85283,-0.84524,-0.85743,-0.86548,-0.86899,-0.85551,-0.8551,-0.86695,-0.86823,-0.86913,-0.86822,-0.86746,-0.87756,-0.87902,-0.87426,-0.87762,-0.87394,-0.87694,-0.87468,-0.88438,-0.88123,-0.88287,-0.87695,-0.87647,-0.88683,-0.89152,-0.8865,-0.88804,-0.8918,-0.88821,-0.88683,-0.89243,-0.90471,-0.90183,-0.90528,-0.9018,-0.89804,-0.90891,-0.90564,-0.89326,-0.9088,-0.9099,-0.90694,-0.91108,-0.91222,-0.95211,-0.94746,-0.91124,-0.89299,-0.88987,-0.90557,-0.9168,-0.9102,-0.92101,-0.9147,-0.89663,-0.90786,-0.90047,-0.88462,-0.89173,-0.8968,-0.88604,-0.89047,-0.88698,-0.8922,-0.88603,-0.88559,-0.88653,-0.86772,-0.87855,-0.87231,-0.84866,-0.87688,-0.87313,-0.86713,-0.85423,-0.87259,-0.87279,-0.87647,-0.85297,-0.85649,-0.85099,-0.85466,-0.85666,-0.84665,-0.84493,-0.85897,-0.85538,-0.84725,-0.84561,-0.84088,-0.84678,-0.85672,-0.83677,-0.83758,-0.84892,-0.84678,-0.84161,-0.8499,-0.83951,-0.84189,-0.83843,-0.84769,-0.83866,-0.83762,-0.83332,-0.8297,-0.82455,-0.83212,-0.83762,-0.82932,-0.82787,-0.8211,-0.81365,-0.81948,-0.8165,-0.80845,-0.8129,-0.81929,-0.81784,-0.80388,-0.81254,-0.81827,-0.81106,-0.80384,-0.80484,-0.80534,-0.79652,-0.79868,-0.80858,-0.80883,-0.79893,-0.79999,-0.79917,-0.79055,-0.80195,-0.79587,-0.7952,-0.79096,-0.78827,-0.79441,-0.79267,-0.78608,-0.78072,-0.78593,-0.78826,-0.78891,-0.78485,-0.79412,-0.79191,-0.77584,-0.77219,-0.77444,-0.77852,-0.77817,-0.77514,-0.77688,-0.78618,-0.78124,-0.77881,-0.77578,-0.77665,-0.77395,-0.77216,-0.77003,-0.77223,-0.77218,-0.77804,-0.77359,-0.76966,-0.76656,-0.76772,-0.77183,-0.76747
-0.77321,-0.77757,-0.77506,-0.77411,-0.77728,-0.77327,-0.77161,-0.77765,-0.77994,-0.78309,-0.7814,-0.78256,-0.78165,-0.78115,-0.78339,-0.78084,-0.78327,-0.78661,-0.78479,-0.7887,-0.78683,-0.79013,-0.79516,-0.78625,-0.7873,-0.79585,-0.7961,-0.79155,-0.79321,-0.79363,-0.78744,-0.79374,-0.80011,-0.80099,-0.79957,-0.8042,-0.79657,-0.79718,-0.80426,-0.80323,-0.81013,-0.80912,-0.80748,-0.81012,-0.8096,-0.80708,-0.81351,-0.81659,-0.81771,-0.81472,-0.81556,-0.82501,-0.81919,-0.81697,-0.82251,-0.8285,-0.82001,-0.82223,-0.82632,-0.82876,-0.82547,-0.82331,-0.8207,-0.82898,-0.8265,-0.83135,-0.83966,-0.83131,-0.83242,-0.83901,-0.84016,-0.83786,-0.84197,-0.84064,-0.84091,-0.84204,-0.85113,-0.84995,-0.85184,-0.85009,-0.84442,-0.86002,-0.8532,-0.85436,-0.8621,-0.85604,-0.85455,-0.86213,-0.86384,-0.8706,-0.86706,-0.87147,-0.87096,-0.86371,-0.87455,-0.87667,-0.86325,-0.86863,-0.87633,-0.87969,-0.87822,-0.87661,-0.87333,-0.88149,-0.88595,-0.86775,-0.88029,-0.88083,-0.89529,-0.88587,-0.88108,-0.90172,-0.90726,-0.90391,-0.90267,-0.89872,-0.89818,-0.90167,-0.90869,-0.91016,-0.90402,-0.89046,-0.89551,-0.89131,-0.91122,-0.91618,-0.92276,-0.95639,-0.95758,-0.90023,-0.89258,-0.90354,-0.90561,-0.90299,-0.89881,-0.89896,-0.89636,-0.89417,-0.89038,-0.88841,-0.89482,-0.88429,-0.89877,-0.88312,-0.8858,-0.89222,-0.90241,-0.88987,-0.88471,-0.8877,-0.88436,-0.86739,-0.87072,-0.85952,-0.87639,-0.87833,-0.87322,-0.85769,-0.87014,-0.86733,-0.86301,-0.85948,-0.87124,-0.86269,-0.85758,-0.85426,-0.85303,-0.84646,-0.85318,-0.84771,-0.84996,-0.84169,-0.84789,-0.85419,-0.85148,-0.84048,-0.84198,-0.8513,-0.83927,-0.84781,-0.84819,-0.84451,-0.83063,-0.83601,-0.83691,-0.82842,-0.83411,-0.83505,-0.83642,-0.8409,-0.83233,-0.82523,-0.81371,-0.81801,-0.81514,-0.82154,-0.8288,-0.81749,-0.81152,-0.80759,-0.81398,-0.81276,-0.80662,-0.81026,-0.8087,-0.81184,-0.80709,-0.80571,-0.80872,-0.80636,-0.80297,-0.79893,-0.80297,-0.7929,-0.78961,-0.79924,-0.79062,-0.79295,-0.79653,-0.79591,-0.78526,-0.78612,-0.78915,-0.79276,-0.78321,-0.78713,-0.79246,-0.78598,-0.77711,-0.78733,-0.78456,-0.7906,-0.78246,-0.778,-0.77678,-0.7741,-0.78598,-0.783,-0.77268,-0.78039,-0.77835,-0.7751,-0.77117,-0.77483,-0.76927,-0.77428,-0.76835,-0.76482,-0.76938,-0.76999,-0.76541,-0.76383,-0.76569,-0.76448,-0.76789,-0.76699
-0.77072,-0.77446,-0.77427,-0.77398,-0.77906,-0.77257,-0.77958,-0.78007,-0.78197,-0.78253,-0.78446,-0.78527,-0.77863,-0.7772,-0.78494,-0.78234,-0.7876,-0.78203,-0.78289,-0.78504,-0.7876,-0.79099,-0.78946,-0.79038,-0.7921,-0.79695,-0.80351,-0.79303,-0.79076,-0.79351,-0.80055,-0.80341,-0.80102,-0.80372,-0.80163,-0.80143,-0.79743,-0.79941,-0.80745,-0.80068,-0.80552,-0.81082,-0.81341,-0.81493,-0.80847,-0.80541,-0.81403,-0.81493,-0.81889,-0.81749,-0.80862,-0.82058,-0.81976,-0.81835,-0.82334,-0.82824,-0.81696,-0.8247,-0.82974,-0.82685,-0.83064,-0.82984,-0.82645,-0.83405,-0.8316,-0.82944,-0.83986,-0.82939,-0.83364,-0.84205,-0.83805,-0.83887,-0.83582,-0.84436,-0.84167,-0.85013,-0.85284,-0.8515,-0.84782,-0.85775,-0.84608,-0.85601,-0.85097,-0.8485,-0.84991,-0.84805,-0.85103,-0.86361,-0.86321,-0.85775,-0.85592,-0.86302,-0.86853,-0.85788,-0.8711,-0.87439,-0.85793,-0.872,-0.87942,-0.88383,-0.87911,-0.8734,-0.87903,-0.87945,-0.88792,-0.88318,-0.87298,-0.87756,-0.8945,-0.88262,-0.88006,-0.89797,-0.90603,-0.90257,-0.88566,-0.89088,-0.89687,-0.9027,-0.90389,-0.9019,-0.91322,-0.91503,-0.90514,-0.90508,-0.90564,-0.91608,-0.91472,-0.95531,-0.95778,-0.9103,-0.89918,-0.92014,-0.90608,-0.89486,-0.89267,-0.8977,-0.89488,-0.88744,-0.89676,-0.90348,-0.90096,-0.89078,-0.87912,-0.88468,-0.8863,-0.88716,-0.88206,-0.87764,-0.87103,-0.88988,-0.8938,-0.86755,-0.86771,-0.8749,-0.87689,-0.86415,-0.86402,-0.86405,-0.86478,-0.86305,-0.8608,-0.85929,-0.87003,-0.87218,-0.87032,-0.86728,-0.85207,-0.85631,-0.85722,-0.83916,-0.85876,-0.85419,-0.84575,-0.85091,-0.85949,-0.85343,-0.8452,-0.83543,-0.83681,-0.84452,-0.83204,-0.84566,-0.84564,-0.82385,-0.83229,-0.82844,-0.82994,-0.83054,-0.84054,-0.83237,-0.82519,-0.8234,-0.82779,-0.82469,-0.81594,-0.82028,-0.82136,-0.81575,-0.81099,-0.80963,-0.81913,-0.81784,-0.81585,-0.81221,-0.8028,-0.81009,-0.80501,-0.80519,-0.80252,-0.80585,-0.80492,-0.80389,-0.79825,-0.79619,-0.80242,-0.80013,-0.7999,-0.79677,-0.78482,-0.78985,-0.78992,-0.78546,-0.78654,-0.78955,-0.78002,-0.78869,-0.79023,-0.78777,-0.78973,-0.79031,-0.7862,-0.78391,-0.78026,-0.78288,-0.78271,-0.78708,-0.77929,-0.77638,-0.77165,-0.78063,-0.77407,-0.76763,-0.77111,-0.77219,-0.77182,-0.77457,-0.77203,-0.77056,-0.768,-0.75943,-0.76288,-0.77101,-0.76403,-0.76088,-0.75746,-0.76632
-0.77485,-0.77056,-0.77033,-0.77302,-0.77662,-0.77695,-0.78202,-0.77672,-0.78281,-0.78191,-0.77896,-0.77962,-0.78119,-0.78095,-0.78538,-0.78506,-0.79061,-0.78505,-0.78305,-0.78062,-0.78724,-0.78666,-0.79235,-0.78844,-0.78739,-0.79329,-0.79622,-0.79642,-0.79314,-0.79175,-0.79833,-0.79697,-0.80454,-0.80202,-0.80024,-0.79599,-0.7962,-0.80769,-0.81174,-0.80588,-0.80687,-0.81399,-0.81199,-0.81044,-0.80476,-0.80954,-0.81633,-0.81468,-0.81499,-0.8175,-0.81363,-0.81337,-0.81109,-0.81415,-0.8225,-0.82496,-0.81973,-0.82215,-0.82192,-0.82381,-0.8317,-0.83146,-0.82872,-0.83297,-0.83834,-0.83266,-0.84041,-0.83344,-0.82735,-0.8423,-0.84095,-0.83571,-0.84041,-0.843,-0.84542,-0.84592,-0.84663,-0.84426,-0.83849,-0.86266,-0.85648,-0.86063,-0.85019,-0.84952,-0.85921,-0.85882,-0.85684,-0.86876,-0.866,-0.85946,-0.8615,-0.85895,-0.8679,-0.86887,-0.86839,-0.86742,-0.86611,-0.87233,-0.88051,-0.87313,-0.87355,-0.88306,-0.88339,-0.88385,-0.88634,-0.88718,-0.88706,-0.89338,-0.89374,-0.87977,-0.8829,-0.8876,-0.90096,-0.89922,-0.88706,-0.8936,-0.89806,-0.89709,-0.90096,-0.90228,-0.89774,-0.90769,-0.90892,-0.91211,-0.90837,-0.92114,-0.9033,-0.9492,-0.95632,-0.90811,-0.91201,-0.89907,-0.89604,-0.90848,-0.90182,-0.88751,-0.89462,-0.90068,-0.89546,-0.8832,-0.89244,-0.90392,-0.88147,-0.88171,-0.88932,-0.89068,-0.87878,-0.88082,-0.87721,-0.88335,-0.88324,-0.87976,-0.87203,-0.87484,-0.87356,-0.87372,-0.86857,-0.86873,-0.86325,-0.86248,-0.8718,-0.85936,-0.85267,-0.85267,-0.86339,-0.8684,-0.85651,-0.8533,-0.855,-0.85552,-0.86041,-0.85577,-0.85276,-0.85151,-0.85193,-0.85428,-0.83889,-0.83271,-0.83545,-0.8329,-0.83442,-0.84107,-0.84073,-0.83694,-0.83937,-0.83297,-0.83821,-0.82564,-0.8342,-0.83065,-0.82719,-0.82452,-0.83505,-0.83239,-0.82095,-0.81478,-0.81502,-0.81314,-0.82114,-0.81986,-0.81231,-0.81081,-0.80998,-0.81593,-0.81529,-0.81304,-0.81544,-0.81688,-0.80576,-0.80568,-0.80471,-0.80164,-0.79559,-0.8013,-0.81047,-0.79662,-0.79145,-0.7981,-0.79488,-0.79458,-0.79389,-0.79209,-0.77981,-0.78794,-0.78261,-0.78911,-0.78996,-0.79101,-0.79234,-0.78646,-0.79222,-0.78475,-0.78494,-0.7794,-0.78746,-0.78884,-0.77372,-0.77264,-0.7749,-0.77765,-0.77094,-0.77191,-0.77666,-0.77119,-0.77054,-0.77625,-0.77454,-0.77729,-0.77528,-0.76538,-0.77425,-0.77018,-0.76325,-0.75731,-0.75634,-0.76228
-0.77411,-0.77522,-0.76839,-0.77294,-0.77097,-0.77202,-0.77814,-0.77867,-0.78478,-0.7826,-0.7789,-0.78235,-0.78154,-0.78368,-0.78398,-0.78051,-0.78617,-0.7854,-0.78398,-0.78205,-0.78337,-0.78576,-0.79338,-0.78868,-0.78834,-0.78745,-0.79564,-0.7952,-0.79199,-0.79713,-0.80492,-0.80122,-0.80351,-0.79897,-0.79849,-0.79796,-0.80401,-0.80691,-0.80179,-0.80091,-0.80294,-0.80494,-0.81228,-0.81236,-0.81156,-0.81548,-0.81885,-0.823,-0.81544,-0.81446,-0.81612,-0.81448,-0.81864,-0.8192,-0.82086,-0.82686,-0.81779,-0.82194,-0.81667,-0.81753,-0.817,-0.83198,-0.82565,-0.83476,-0.83545,-0.83621,-0.83746,-0.84004,-0.83005,-0.83873,-0.83726,-0.83306,-0.83628,-0.84051,-0.84331,-0.84009,-0.84263,-0.84569,-0.84255,-0.8519,-0.84588,-0.8535,-0.84841,-0.85329,-0.85655,-0.85742,-0.86336,-0.86914,-0.85474,-0.85656,-0.86588,-0.87376,-0.87228,-0.87442,-0.87745,-0.87779,-0.87283,-0.87755,-0.8727,-0.87915,-0.87914,-0.87916,-0.87506,-0.88513,-0.87849,-0.88649,-0.89569,-0.89489,-0.89124,-0.87586,-0.8859,-0.88494,-0.89853,-0.89794,-0.89951,-0.90365,-0.89953,-0.89703,-0.90373,-0.90577,-0.90843,-0.9146,-0.91363,-0.90499,-0.91357,-0.91657,-0.91187,-0.9599,-0.95071,-0.90679,-0.90133,-0.90584,-0.89528,-0.89735,-0.90861,-0.903,-0.89791,-0.90001,-0.88905,-0.88793,-0.89712,-0.9035,-0.90069,-0.89321,-0.88331,-0.88524,-0.89415,-0.88824,-0.89297,-0.89521,-0.87369,-0.88854,-0.88167,-0.8884,-0.87688,-0.88402,-0.87555,-0.86258,-0.85971,-0.86849,-0.86908,-0.85112,-0.85091,-0.84829,-0.85952,-0.86791,-0.86197,-0.84943,-0.83998,-0.86347,-0.85351,-0.85658,-0.85328,-0.84054,-0.84041,-0.83182,-0.83886,-0.84131,-0.84301,-0.83608,-0.83735,-0.83776,-0.8373,-0.83474,-0.84245,-0.83302,-0.82408,-0.82356,-0.82271,-0.8351,-0.82617,-0.819,-0.82181,-0.81982,-0.829,-0.8225,-0.81516,-0.80164,-0.82133,-0.82472,-0.81342,-0.80736,-0.81381,-0.81389,-0.82174,-0.81037,-0.80693,-0.80763,-0.81189,-0.80748,-0.80148,-0.79747,-0.80019,-0.8068,-0.80003,-0.80091,-0.78474,-0.79806,-0.79746,-0.79905,-0.79492,-0.7882,-0.79053,-0.78767,-0.78331,-0.79004,-0.78846,-0.78628,-0.79527,-0.78917,-0.7824,-0.7818,-0.78637,-0.77867,-0.77895,-0.77876,-0.78164,-0.77405,-0.77488,-0.77299,-0.77861,-0.7767,-0.77881,-0.77357,-0.77134,-0.77073,-0.77054,-0.77226,-0.76997,-0.76912,-0.76806,-0.76889,-0.76953,-0.76526,-0.76244,-0.76168
-0.77608,-0.77786,-0.76929,-0.77551,-0.77758,-0.77439,-0.7764,-0.77925,-0.78504,-0.77968,-0.77798,-0.78421,-0.78227,-0.7807,-0.78087,-0.78123,-0.78172,-0.78236,-0.78731,-0.78662,-0.78841,-0.78796,-0.79195,-0.78868,-0.79285,-0.79437,-0.7962,-0.79668,-0.8008,-0.79659,-0.80083,-0.79861,-0.80579,-0.80179,-0.79967,-0.79977,-0.80506,-0.8094,-0.80134,-0.79851,-0.80046,-0.80364,-0.81373,-0.81371,-0.8099,-0.81776,-0.81831,-0.81943,-0.81196,-0.80918,-0.81531,-0.81947,-0.81476,-0.82169,-0.82306,-0.81945,-0.82382,-0.81397,-0.82059,-0.82983,-0.83387,-0.83199,-0.83168,-0.83596,-0.82702,-0.82597,-0.82973,-0.83611,-0.84297,-0.83549,-0.83829,-0.84218,-0.83902,-0.84287,-0.84955,-0.84526,-0.83906,-0.85287,-0.84899,-0.84646,-0.84499,-0.84385,-0.84575,-0.85447,-0.86284,-0.86228,-0.86592,-0.8608,-0.86453,-0.8621,-0.86787,-0.87068,-0.87011,-0.86564,-0.87514,-0.87596,-0.87303,-0.86453,-0.87313,-0.87073,-0.8794,-0.88603,-0.89085,-0.89005,-0.87629,-0.89039,-0.89772,-0.88721,-0.8871,-0.88871,-0.89444,-0.8937,-0.88311,-0.89268,-0.90855,-0.90905,-0.90645,-0.89514,-0.89735,-0.90679,-0.9031,-0.91295,-0.90727,-0.90506,-0.90067,-0.90407,-0.91387,-0.96493,-0.95693,-0.92579,-0.90736,-0.91614,-0.90917,-0.8963,-0.90031,-0.90457,-0.89787,-0.88024,-0.87507,-0.90324,-0.8959,-0.87802,-0.88377,-0.89373,-0.87354,-0.88785,-0.89603,-0.88171,-0.87522,-0.88822,-0.87089,-0.881,-0.87612,-0.88786,-0.88131,-0.86338,-0.8569,-0.85649,-0.86428,-0.86872,-0.86328,-0.8623,-0.86096,-0.84766,-0.85515,-0.85659,-0.85019,-0.84828,-0.85513,-0.85548,-0.84659,-0.85769,-0.85692,-0.84148,-0.83934,-0.83892,-0.84014,-0.85389,-0.8474,-0.84833,-0.84038,-0.83491,-0.83343,-0.82562,-0.83472,-0.82429,-0.81759,-0.82113,-0.82446,-0.82603,-0.83156,-0.83144,-0.82241,-0.82267,-0.83108,-0.82339,-0.82365,-0.82411,-0.81781,-0.81879,-0.81447,-0.80925,-0.81672,-0.80887,-0.81787,-0.80905,-0.8053,-0.80406,-0.8043,-0.80495,-0.80137,-0.79536,-0.80455,-0.80524,-0.79884,-0.7959,-0.78785,-0.8038,-0.796,-0.79257,-0.79529,-0.79593,-0.79624,-0.78565,-0.79374,-0.80144,-0.79261,-0.78734,-0.79424,-0.78988,-0.7858,-0.77957,-0.77837,-0.78165,-0.78445,-0.78028,-0.78366,-0.77579,-0.77507,-0.77366,-0.77058,-0.77447,-0.76971,-0.7706,-0.77367,-0.77074,-0.77703,-0.76368,-0.76413,-0.77056,-0.77621,-0.76656,-0.76785,-0.76932,-0.7666,-0.77005
-0.77241,-0.77398,-0.7773,-0.77743,-0.7781,-0.778,-0.78227,-0.781,-0.78256,-0.78067,-0.78,-0.78507,-0.78536,-0.78241,-0.78168,-0.78339,-0.78823,-0.78518,-0.78576,-0.78726,-0.79281,-0.78861,-0.78898,-0.79404,-0.78903,-0.78925,-0.79561,-0.80077,-0.79842,-0.79353,-0.79626,-0.80037,-0.80442,-0.79829,-0.80226,-0.80567,-0.80088,-0.80568,-0.80883,-0.80892,-0.80869,-0.81094,-0.81466,-0.8121,-0.81097,-0.8121,-0.81135,-0.81104,-0.81248,-0.81133,-0.8131,-0.82356,-0.82758,-0.82798,-0.82252,-0.82334,-0.82526,-0.82741,-0.82985,-0.82986,-0.83655,-0.8293,-0.82926,-0.82991,-0.83029,-0.8324,-0.83377,-0.83349,-0.83702,-0.83513,-0.83465,-0.8465,-0.84247,-0.83883,-0.84261,-0.84193,-0.84837,-0.85212,-0.84466,-0.85364,-0.85279,-0.85004,-0.84871,-0.85324,-0.8571,-0.8575,-0.87021,-0.8676,-0.85714,-0.86273,-0.86329,-0.86342,-0.86539,-0.87122,-0.87471,-0.86283,-0.87054,-0.87897,-0.87966,-0.8776,-0.87879,-0.87363,-0.88136,-0.88328,-0.88981,-0.88171,-0.87802,-0.88017,-0.89681,-0.89093,-0.88992,-0.89571,-0.89771,-0.88886,-0.89973,-0.9015,-0.89592,-0.88693,-0.88556,-0.89168,-0.90298,-0.9059,-0.9048,-0.90496,-0.91138,-0.91388,-0.91891,-0.96056,-0.95573,-0.90292,-0.90336,-0.90691,-0.89472,-0.89946,-0.90195,-0.89072,-0.90065,-0.89726,-0.88682,-0.89931,-0.89309,-0.88302,-0.87225,-0.88043,-0.88464,-0.88582,-0.88272,-0.88413,-0.88043,-0.8783,-0.8822,-0.88033,-0.87248,-0.88704,-0.87217,-0.86202,-0.86783,-0.86208,-0.87428,-0.86092,-0.86211,-0.85394,-0.85729,-0.86021,-0.85446,-0.85783,-0.85648,-0.854,-0.86008,-0.84185,-0.84268,-0.84691,-0.85339,-0.84753,-0.83171,-0.83416,-0.85023,-0.84689,-0.83267,-0.83735,-0.83591,-0.83829,-0.84151,-0.83501,-0.8261,-0.83184,-0.83616,-0.82395,-0.82862,-0.82925,-0.82927,-0.8343,-0.82466,-0.82409,-0.82988,-0.82571,-0.81684,-0.82055,-0.81289,-0.81659,-0.81292,-0.81453,-0.8111,-0.80394,-0.81722,-0.81114,-0.80401,-0.8013,-0.80574,-0.81164,-0.79984,-0.80179,-0.80359,-0.79949,-0.80112,-0.79627,-0.7991,-0.79648,-0.79689,-0.78912,-0.79026,-0.78999,-0.79678,-0.79148,-0.79025,-0.78822,-0.78592,-0.78228,-0.78521,-0.79252,-0.78221,-0.77303,-0.77414,-0.77689,-0.78428,-0.77942,-0.77802,-0.77458,-0.7776,-0.7779,-0.77762,-0.77373,-0.76521,-0.76796,-0.76385,-0.76205,-0.77152,-0.76969,-0.76756,-0.77166,-0.77288,-0.77038,-0.76504,-0.76187,-0.76083,-0.76208
-0.77077,-0.77368,-0.77569,-0.77581,-0.77558,-0.77857,-0.78424,-0.7782,-0.78075,-0.77776,-0.77886,-0.78103,-0.78164,-0.78868,-0.78346,-0.77943,-0.78635,-0.78525,-0.78433,-0.79136,-0.79092,-0.78709,-0.7908,-0.79101,-0.78464,-0.78842,-0.79487,-0.7978,-0.79179,-0.79439,-0.79971,-0.79674,-0.79676,-0.79222,-0.79971,-0.80285,-0.80277,-0.80568,-0.80211,-0.80499,-0.80814,-0.80696,-0.80757,-0.80619,-0.81129,-0.81293,-0.81414,-0.81162,-0.81694,-0.81614,-0.81698,-0.82197,-0.81865,-0.81753,-0.82445,-0.82555,-0.82139,-0.82821,-0.82686,-0.82658,-0.82355,-0.82957,-0.82978,-0.83512,-0.83753,-0.83612,-0.83604,-0.83687,-0.84321,-0.84026,-0.83048,-0.83719,-0.83709,-0.82979,-0.83825,-0.8441,-0.84408,-0.84946,-0.84836,-0.85285,-0.85315,-0.85357,-0.85751,-0.8576,-0.85959,-0.85272,-0.85691,-0.8678,-0.86394,-0.86025,-0.86892,-0.86386,-0.86336,-0.8792,-0.87638,-0.86038,-0.86759,-0.88117,-0.87846,-0.8771,-0.88111,-0.87681,-0.87719,-0.88727,-0.892,-0.8949,-0.88746,-0.89512,-0.88862,-0.89444,-0.8941,-0.88287,-0.89617,-0.89276,-0.90575,-0.90254,-0.89698,-0.89982,-0.89398,-0.90371,-0.90372,-0.90076,-0.90924,-0.91261,-0.92524,-0.91348,-0.91251,-0.95592,-0.9642,-0.8949,-0.90553,-0.89696,-0.90424,-0.8953,-0.90089,-0.89895,-0.89946,-0.88946,-0.88957,-0.89463,-0.90286,-0.89482,-0.87914,-0.88348,-0.88743,-0.88476,-0.89247,-0.88566,-0.89635,-0.87165,-0.88402,-0.88962,-0.87461,-0.87405,-0.86259,-0.86986,-0.87384,-0.86634,-0.86034,-0.8628,-0.86534,-0.85246,-0.85495,-0.86861,-0.85901,-0.86611,-0.87814,-0.85691,-0.85425,-0.86266,-0.85121,-0.84926,-0.85294,-0.84849,-0.83836,-0.83737,-0.83991,-0.83992,-0.83676,-0.82515,-0.83307,-0.83902,-0.83498,-0.8191,-0.82841,-0.82254,-0.82653,-0.82976,-0.84516,-0.84685,-0.83574,-0.82617,-0.81909,-0.82056,-0.81672,-0.82785,-0.81792,-0.81427,-0.81386,-0.82681,-0.80865,-0.80472,-0.80653,-0.81199,-0.81572,-0.81068,-0.80915,-0.80555,-0.81736,-0.81094,-0.80243,-0.79986,-0.79667,-0.79946,-0.80171,-0.80553,-0.80339,-0.80335,-0.79764,-0.7962,-0.80365,-0.79192,-0.7946,-0.7909,-0.78408,-0.78312,-0.79246,-0.79162,-0.78176,-0.78545,-0.78589,-0.781,-0.77753,-0.77896,-0.78828,-0.78424,-0.78154,-0.78364,-0.77442,-0.76927,-0.77946,-0.78454,-0.77181,-0.7729,-0.76969,-0.77414,-0.77188,-0.76494,-0.76682,-0.76927,-0.76641,-0.76419,-0.76282,-0.76577,-0.76562,-0.76214
-0.77299,-0.77648,-0.77192,-0.77042,-0.77262,-0.77384,-0.77945,-0.77962,-0.78037,-0.77819,-0.77924,-0.78545,-0.78366,-0.7872,-0.78126,-0.78202,-0.78853,-0.78705,-0.78564,-0.79145,-0.79447,-0.78599,-0.78912,-0.79155,-0.78916,-0.7945,-0.79416,-0.79294,-0.79709,-0.79913,-0.79855,-0.797,-0.8013,-0.79938,-0.79659,-0.80336,-0.80454,-0.80692,-0.80356,-0.80553,-0.81464,-0.80871,-0.80862,-0.80702,-0.80848,-0.80961,-0.81414,-0.81107,-0.81912,-0.81359,-0.81336,-0.81863,-0.81282,-0.81827,-0.82414,-0.81673,-0.81776,-0.83568,-0.82331,-0.82546,-0.82299,-0.83009,-0.83112,-0.82951,-0.83165,-0.83637,-0.83831,-0.84,-0.83321,-0.84163,-0.8442,-0.83775,-0.84053,-0.84222,-0.84235,-0.84432,-0.84739,-0.85248,-0.84843,-0.8534,-0.85212,-0.86097,-0.85812,-0.85892,-0.85507,-0.85002,-0.85503,-0.85808,-0.85643,-0.86095,-0.87219,-0.86605,-0.87125,-0.87583,-0.86834,-0.86203,-0.87762,-0.87605,-0.87989,-0.87597,-0.86981,-0.87825,-0.88798,-0.89549,-0.87865,-0.89315,-0.88836,-0.88844,-0.88776,-0.89128,-0.8944,-0.88863,-0.88356,-0.88939,-0.8985,-0.89305,-0.89948,-0.89545,-0.89696,-0.90692,-0.90608,-0.91514,-0.91648,-0.91299,-0.9148,-0.919,-0.91451,-0.9538,-0.96102,-0.88988,-0.89566,-0.89952,-0.91103,-0.90157,-0.89529,-0.88881,-0.88951,-0.89805,-0.90658,-0.89032,-0.88721,-0.88448,-0.8796,-0.87887,-0.88059,-0.88188,-0.89528,-0.89248,-0.8907,-0.89093,-0.8966,-0.88275,-0.86526,-0.85892,-0.85481,-0.86288,-0.85997,-0.88491,-0.86078,-0.85503,-0.85999,-0.86548,-0.86517,-0.86434,-0.85491,-0.84985,-0.85726,-0.85794,-0.85238,-0.85696,-0.85842,-0.86221,-0.8557,-0.84275,-0.83705,-0.83476,-0.84906,-0.85104,-0.84794,-0.83387,-0.83172,-0.8433,-0.85045,-0.83225,-0.83834,-0.82626,-0.82729,-0.8203,-0.83089,-0.84153,-0.83644,-0.82652,-0.81876,-0.8183,-0.82978,-0.81762,-0.81828,-0.80251,-0.81319,-0.82041,-0.81464,-0.79831,-0.80958,-0.81239,-0.80733,-0.80052,-0.81481,-0.81427,-0.8024,-0.80505,-0.79924,-0.79472,-0.79493,-0.79197,-0.7979,-0.79997,-0.80293,-0.80604,-0.79647,-0.80385,-0.80127,-0.78993,-0.80429,-0.79236,-0.78986,-0.78674,-0.79234,-0.7851,-0.78634,-0.7832,-0.78987,-0.78915,-0.78671,-0.78199,-0.78458,-0.77427,-0.77683,-0.78097,-0.77982,-0.77947,-0.78047,-0.7845,-0.7753,-0.7757,-0.77325,-0.777,-0.77118,-0.76555,-0.76852,-0.76301,-0.76345,-0.76164,-0.76735,-0.76985,-0.76466,-0.76833
-0.77689,-0.77496,-0.77337,-0.77603,-0.77933,-0.77532,-0.77568,-0.78056,-0.7741,-0.77715,-0.78197,-0.7822,-0.78197,-0.78389,-0.78459,-0.78045,-0.78818,-0.78984,-0.78452,-0.78571,-0.78788,-0.78934,-0.79357,-0.79653,-0.79147,-0.79677,-0.7985,-0.79584,-0.79767,-0.80265,-0.79963,-0.80332,-0.80021,-0.80287,-0.80104,-0.80444,-0.80587,-0.80178,-0.80516,-0.80695,-0.81012,-0.80982,-0.8172,-0.81648,-0.8065,-0.80656,-0.81358,-0.81696,-0.81944,-0.81695,-0.81299,-0.81195,-0.82169,-0.82192,-0.81921,-0.81944,-0.81667,-0.821,-0.81934,-0.82875,-0.82518,-0.82547,-0.82899,-0.83297,-0.83269,-0.83289,-0.84078,-0.84417,-0.83328,-0.83472,-0.84467,-0.84591,-0.84482,-0.84997,-0.8515,-0.84563,-0.84262,-0.84776,-0.84528,-0.85011,-0.84874,-0.85065,-0.864,-0.85903,-0.8569,-0.85967,-0.85929,-0.85998,-0.86307,-0.86756,-0.87666,-0.85844,-0.87072,-0.87395,-0.86687,-0.87367,-0.86851,-0.87576,-0.87854,-0.88153,-0.87647,-0.87366,-0.87789,-0.88826,-0.87948,-0.88543,-0.88649,-0.88013,-0.89333,-0.90321,-0.89522,-0.89166,-0.89534,-0.88897,-0.90145,-0.89767,-0.90669,-0.90351,-0.8989,-0.90609,-0.90721,-0.90196,-0.92184,-0.91553,-0.91186,-0.91698,-0.90583,-0.94702,-0.96099,-0.89461,-0.89644,-0.90456,-0.90254,-0.90376,-0.9044,-0.89312,-0.89332,-0.88431,-0.89256,-0.88489,-0.88425,-0.89141,-0.89273,-0.88963,-0.88667,-0.88472,-0.8785,-0.89985,-0.88708,-0.87976,-0.89037,-0.87485,-0.86751,-0.87586,-0.86915,-0.86426,-0.86753,-0.88113,-0.8775,-0.87077,-0.86795,-0.87222,-0.86875,-0.87062,-0.86296,-0.8523,-0.8447,-0.84726,-0.84671,-0.84437,-0.84622,-0.85079,-0.85122,-0.84982,-0.84494,-0.8407,-0.84185,-0.84284,-0.84373,-0.8433,-0.83459,-0.83922,-0.84391,-0.83046,-0.84089,-0.83954,-0.83911,-0.8234,-0.82705,-0.82892,-0.83929,-0.82969,-0.82008,-0.82269,-0.82585,-0.81585,-0.82484,-0.82835,-0.82149,-0.81285,-0.81432,-0.81221,-0.81766,-0.81469,-0.8012,-0.80489,-0.81303,-0.80813,-0.80089,-0.79343,-0.80157,-0.79931,-0.79647,-0.79881,-0.80029,-0.79742,-0.81167,-0.79982,-0.79195,-0.79768,-0.80356,-0.79215,-0.79692,-0.79287,-0.79298,-0.78684,-0.78631,-0.78488,-0.78542,-0.78541,-0.79542,-0.78704,-0.78411,-0.78291,-0.78329,-0.77853,-0.77849,-0.78182,-0.78334,-0.78231,-0.78076,-0.77982,-0.77252,-0.76871,-0.77005,-0.76748,-0.76634,-0.76974,-0.76862,-0.76804,-0.76736,-0.76543,-0.75981,-0.76285,-0.76362,-0.76415
-0.77399,-0.77418,-0.77929,-0.77647,-0.77909,-0.77557,-0.77568,-0.78106,-0.7807,-0.77898,-0.78397,-0.77728,-0.77915,-0.78854,-0.79273,-0.78297,-0.78213,-0.78908,-0.78857,-0.78901,-0.78757,-0.78932,-0.79328,-0.79862,-0.79341,-0.7942,-0.79442,-0.79488,-0.79053,-0.79719,-0.80202,-0.803,-0.79612,-0.79769,-0.80366,-0.8051,-0.80574,-0.80323,-0.8024,-0.80865,-0.80954,-0.81013,-0.80535,-0.81322,-0.81802,-0.81526,-0.81668,-0.81419,-0.81191,-0.81948,-0.82142,-0.81586,-0.82113,-0.81781,-0.81837,-0.81746,-0.82826,-0.8234,-0.82267,-0.83121,-0.83418,-0.83353,-0.83589,-0.83277,-0.83191,-0.84059,-0.83649,-0.83597,-0.8392,-0.841,-0.8507,-0.84689,-0.85027,-0.84736,-0.85133,-0.84271,-0.84836,-0.84801,-0.85283,-0.85314,-0.84858,-0.85864,-0.86135,-0.85335,-0.86224,-0.86104,-0.86188,-0.86851,-0.86724,-0.86059,-0.8699,-0.85965,-0.86651,-0.87713,-0.8665,-0.87765,-0.873,-0.8715,-0.87061,-0.87372,-0.87371,-0.87706,-0.88847,-0.8905,-0.88867,-0.88961,-0.89004,-0.8848,-0.8918,-0.89179,-0.88391,-0.8913,-0.89376,-0.89673,-0.90009,-0.89863,-0.89784,-0.9028,-0.8956,-0.89619,-0.90489,-0.90279,-0.91385,-0.90237,-0.89845,-0.91235,-0.90933,-0.95799,-0.95467,-0.88938,-0.89332,-0.89408,-0.89298,-0.90581,-0.8927,-0.88741,-0.89919,-0.89111,-0.89665,-0.88928,-0.8918,-0.89655,-0.89688,-0.89719,-0.89476,-0.88418,-0.87981,-0.89383,-0.88691,-0.87897,-0.88741,-0.87445,-0.87913,-0.86909,-0.86573,-0.87376,-0.87629,-0.87111,-0.87237,-0.85806,-0.87634,-0.87153,-0.85854,-0.86008,-0.85635,-0.86282,-0.8654,-0.85384,-0.85963,-0.85436,-0.85381,-0.83803,-0.83915,-0.84435,-0.8472,-0.85157,-0.84793,-0.84814,-0.8326,-0.83498,-0.83734,-0.82987,-0.82991,-0.82502,-0.83863,-0.84534,-0.84029,-0.83329,-0.82649,-0.81958,-0.82797,-0.81564,-0.82732,-0.82454,-0.81516,-0.81816,-0.81618,-0.82138,-0.82026,-0.8161,-0.81879,-0.81884,-0.80441,-0.81152,-0.80821,-0.80759,-0.80708,-0.80124,-0.80197,-0.80371,-0.807,-0.80525,-0.80569,-0.80451,-0.79724,-0.79705,-0.80476,-0.79982,-0.7982,-0.79695,-0.79323,-0.78131,-0.78443,-0.78642,-0.79072,-0.79035,-0.79441,-0.78783,-0.7847,-0.78917,-0.78638,-0.77756,-0.77452,-0.77467,-0.78355,-0.78346,-0.78956,-0.78382,-0.78075,-0.76953,-0.77509,-0.77622,-0.77454,-0.77366,-0.77046,-0.7734,-0.77681,-0.77833,-0.77551,-0.77274,-0.77416,-0.76977,-0.76217,-0.76214,-0.75713,-0.76562
-0.77295,-0.77014,-0.77566,-0.77558,-0.77826,-0.78018,-0.77921,-0.77284,-0.77672,-0.78048,-0.78138,-0.77747,-0.78096,-0.78384,-0.79023,-0.7804,-0.78409,-0.78282,-0.78668,-0.79265,-0.78961,-0.79128,-0.79576,-0.80064,-0.79245,-0.79472,-0.79381,-0.79327,-0.78881,-0.79276,-0.79404,-0.79521,-0.80473,-0.79251,-0.79778,-0.8017,-0.80521,-0.80527,-0.8024,-0.80637,-0.81307,-0.81212,-0.80956,-0.81544,-0.8116,-0.81442,-0.82162,-0.81444,-0.8102,-0.81199,-0.81367,-0.8167,-0.81529,-0.81671,-0.82441,-0.81613,-0.82109,-0.82462,-0.82792,-0.83008,-0.83771,-0.83279,-0.83549,-0.83819,-0.83195,-0.83016,-0.83071,-0.83336,-0.84187,-0.84358,-0.83637,-0.83096,-0.84062,-0.84082,-0.85069,-0.84234,-0.8538,-0.85019,-0.8487,-0.85897,-0.85111,-0.85889,-0.84786,-0.85767,-0.85925,-0.86389,-0.86458,-0.86149,-0.86239,-0.86318,-0.8734,-0.8637,-0.86135,-0.87323,-0.87644,-0.87513,-0.86929,-0.87348,-0.88297,-0.87367,-0.87237,-0.87905,-0.88067,-0.88265,-0.89244,-0.88651,-0.88151,-0.8797,-0.88041,-0.89387,-0.8994,-0.89521,-0.89015,-0.89026,-0.89158,-0.89664,-0.89294,-0.89415,-0.89406,-0.89711,-0.90374,-0.90253,-0.90254,-0.89798,-0.90835,-0.91554,-0.91522,-0.96296,-0.95698,-0.90052,-0.88144,-0.87322,-0.89487,-0.89952,-0.89396,-0.90007,-0.90087,-0.88954,-0.88837,-0.89445,-0.89139,-0.89305,-0.88681,-0.88094,-0.88145,-0.88664,-0.88725,-0.89664,-0.89857,-0.87274,-0.87277,-0.87639,-0.87979,-0.86805,-0.86112,-0.87491,-0.87859,-0.86907,-0.87267,-0.85949,-0.87928,-0.87403,-0.86155,-0.85471,-0.8548,-0.85708,-0.86383,-0.85406,-0.84195,-0.8547,-0.86345,-0.85735,-0.84581,-0.84583,-0.84931,-0.84375,-0.84491,-0.84668,-0.84428,-0.83649,-0.82399,-0.83537,-0.83498,-0.83273,-0.83673,-0.83488,-0.84352,-0.8213,-0.82594,-0.83494,-0.83221,-0.82976,-0.8212,-0.82536,-0.82602,-0.82394,-0.8241,-0.82449,-0.81972,-0.82511,-0.82195,-0.81287,-0.80356,-0.80192,-0.80345,-0.80649,-0.80601,-0.79802,-0.80049,-0.80794,-0.80522,-0.80363,-0.80182,-0.79781,-0.80093,-0.79228,-0.78809,-0.7989,-0.80266,-0.79837,-0.78697,-0.78289,-0.79246,-0.7931,-0.78839,-0.79185,-0.79396,-0.78708,-0.78333,-0.78463,-0.78697,-0.78263,-0.78162,-0.78473,-0.78079,-0.78438,-0.78765,-0.77944,-0.78336,-0.7691,-0.76814,-0.77353,-0.77798,-0.77561,-0.77938,-0.76958,-0.77089,-0.77088,-0.76236,-0.77159,-0.7708,-0.7657,-0.76718,-0.76036,-0.76334,-0.76555
