0.6351,0.63577,0.63496,0.63335,0.63043,0.63277,0.63637,0.62937,0.62936,0.63059,0.6283,0.63335,0.62751,0.62049,0.6292,0.63196,0.62759,0.62267,0.62435,0.61927,0.61515,0.62226,0.62352,0.61574,0.61601,0.61387,0.61239,0.61347,0.6104,0.6079,0.6051,0.60194,0.6125,0.61275,0.59719,0.5995,0.60472,0.6033,0.60314,0.60108,0.60024,0.59336,0.59384,0.59338,0.59036,0.59062,0.58937,0.59103,0.58943,0.58344,0.58879,0.59396,0.58423,0.57629,0.57509,0.57108,0.57311,0.57785,0.56911,0.56595,0.56423,0.56836,0.56064,0.56435,0.55668,0.55919,0.54466,0.5494,0.55323,0.54703,0.55205,0.54732,0.56224,0.55788,0.54599,0.54036,0.53127,0.53964,0.54091,0.53714,0.53062,0.52139,0.52069,0.52465,0.5319,0.53396,0.52369,0.51776,0.52696,0.51755,0.51572,0.51656,0.50964,0.50385,0.48451,0.49491,0.48932,0.50274,0.49639,0.47232,0.4828,0.47484,0.46046,0.47168,0.48661,0.46991,0.454,0.45599,0.46148,0.46099,0.47064,0.46962,0.47147,0.44461,0.44018,0.43474,0.42846,0.42873,0.45033,0.44838,0.44802,0.44096,0.42612,0.42961,0.42828,0.41704,0.39224,0.24343,-0.29968,-0.40885,-0.43188,-0.38054,-0.41851,-0.41171,-0.43956,-0.44711,-0.44806,-0.4461,-0.44378,-0.44331,-0.43235,-0.4865,-0.47075,-0.45433,-0.46497,-0.47164,-0.48175,-0.52557,-0.49485,-0.48076,-0.48853,-0.49781,-0.46872,-0.48045,-0.49683,-0.49416,-0.49217,-0.50502,-0.51491,-0.49094,-0.49802,-0.5097,-0.51532,-0.51813,-0.52061,-0.51073,-0.51957,-0.5396,-0.53282,-0.55094,-0.54353,-0.53988,-0.53342,-0.53674,-0.53471,-0.53244,-0.54607,-0.55633,-0.54763,-0.55094,-0.56464,-0.54769,-0.55514,-0.56371,-0.55263,-0.58406,-0.57725,-0.56691,-0.56443,-0.55075,-0.57547,-0.5694,-0.58167,-0.58189,-0.57256,-0.57084,-0.58503,-0.57572,-0.5823,-0.59908,-0.59638,-0.58402,-0.58753,-0.58991,-0.59984,-0.60878,-0.59841,-0.60511,-0.60268,-0.59899,-0.60784,-0.60631,-0.61149,-0.60181,-0.61164,-0.61949,-0.61216,-0.60922,-0.60604,-0.61273,-0.61515,-0.61615,-0.62357,-0.61581,-0.62153,-0.61935,-0.61737,-0.62017,-0.62885,-0.62459,-0.62406,-0.62666,-0.61913,-0.62096,-0.62392,-0.62664,-0.63098,-0.63912,-0.63851,-0.63855,-0.63618,-0.63252,-0.63979,-0.64586,-0.64002,-0.64238,-0.64788,-0.64188,-0.64132,-0.64305,-0.64968,-0.64397,-0.65097,-0.65253,-0.6514,-0.64832
0.63945,0.63725,0.63464,0.63824,0.63654,0.62981,0.63609,0.62904,0.63201,0.62955,0.63094,0.62784,0.62313,0.63081,0.63081,0.62433,0.62426,0.62441,0.62731,0.61764,0.61427,0.61953,0.62112,0.61861,0.61411,0.61479,0.60877,0.60836,0.6072,0.60601,0.60967,0.60282,0.6027,0.60787,0.60939,0.60695,0.60733,0.60209,0.59549,0.60114,0.60061,0.60001,0.59657,0.58921,0.58591,0.59284,0.59534,0.59093,0.59402,0.58757,0.5798,0.58336,0.58493,0.57748,0.57191,0.57549,0.57982,0.5731,0.5735,0.56632,0.57149,0.56678,0.56757,0.55867,0.55303,0.56878,0.55604,0.55683,0.55958,0.55654,0.55582,0.55026,0.54938,0.53759,0.54344,0.54387,0.54728,0.52737,0.54108,0.53593,0.54319,0.53451,0.51506,0.51449,0.5279,0.52457,0.52768,0.52271,0.51152,0.51356,0.52406,0.51654,0.51327,0.50843,0.50305,0.50636,0.50417,0.4909,0.48337,0.48711,0.46942,0.47789,0.46583,0.48879,0.49851,0.47488,0.45929,0.47171,0.44485,0.45972,0.46031,0.458,0.46162,0.45799,0.45219,0.4316,0.43207,0.43992,0.44157,0.4411,0.43164,0.41866,0.42318,0.40019,0.41599,0.40529,0.39083,0.268,-0.32436,-0.43006,-0.44387,-0.42552,-0.42209,-0.43274,-0.45122,-0.4426,-0.48829,-0.46216,-0.43472,-0.43485,-0.40672,-0.44083,-0.45407,-0.44653,-0.46974,-0.466,-0.44372,-0.48871,-0.48447,-0.49852,-0.50879,-0.49048,-0.46647,-0.46493,-0.49124,-0.49587,-0.50831,-0.50634,-0.49878,-0.49448,-0.51834,-0.51265,-0.51871,-0.51245,-0.52913,-0.51156,-0.53627,-0.53975,-0.52321,-0.53431,-0.5364,-0.51659,-0.52052,-0.55512,-0.5474,-0.55175,-0.54786,-0.55232,-0.55575,-0.55058,-0.54357,-0.55325,-0.53977,-0.55448,-0.56264,-0.57001,-0.56415,-0.54702,-0.55403,-0.55742,-0.56793,-0.56843,-0.56967,-0.56571,-0.57378,-0.56262,-0.5686,-0.57215,-0.59267,-0.58695,-0.58663,-0.59145,-0.59583,-0.60026,-0.59862,-0.60863,-0.59994,-0.60872,-0.60369,-0.60683,-0.6151,-0.60995,-0.60799,-0.59849,-0.60524,-0.60731,-0.61226,-0.60036,-0.60547,-0.62063,-0.61987,-0.61994,-0.62003,-0.62084,-0.61527,-0.61475,-0.61417,-0.63225,-0.63039,-0.62987,-0.63406,-0.62496,-0.62775,-0.62558,-0.62508,-0.63097,-0.63813,-0.63543,-0.6366,-0.63509,-0.63337,-0.63385,-0.63202,-0.63252,-0.64182,-0.63641,-0.64304,-0.64548,-0.64339,-0.641,-0.64356,-0.63777,-0.64365,-0.63674,-0.64808,-0.64989
0.63527,0.63437,0.6331,0.63773,0.63681,0.62649,0.63318,0.62978,0.63339,0.63083,0.63129,0.63183,0.62938,0.63057,0.62548,0.62019,0.61628,0.62458,0.62201,0.61967,0.61696,0.61559,0.61679,0.61195,0.61455,0.61234,0.61408,0.61232,0.61353,0.61799,0.61542,0.60239,0.6053,0.60565,0.60753,0.60484,0.6007,0.5992,0.60155,0.60565,0.60087,0.59647,0.60029,0.58983,0.58501,0.59358,0.59081,0.59314,0.59512,0.59504,0.5787,0.58266,0.57868,0.57472,0.57113,0.57153,0.57392,0.58201,0.5782,0.57779,0.56915,0.56994,0.56596,0.55673,0.55354,0.56036,0.56323,0.56443,0.55733,0.55454,0.56794,0.55743,0.54785,0.53086,0.52919,0.5402,0.53216,0.53053,0.53699,0.53377,0.52487,0.53043,0.53236,0.52703,0.53403,0.52474,0.52221,0.52295,0.51689,0.52019,0.51265,0.51056,0.4876,0.50117,0.50945,0.50682,0.48908,0.49648,0.47166,0.49643,0.48244,0.47573,0.4698,0.48262,0.48801,0.47111,0.45555,0.48656,0.45702,0.46839,0.46514,0.46598,0.46732,0.45111,0.46145,0.4438,0.43384,0.42333,0.43018,0.45661,0.42614,0.42563,0.41306,0.3995,0.41519,0.41016,0.40236,0.29924,-0.2609,-0.41433,-0.42452,-0.40415,-0.40518,-0.43744,-0.42353,-0.434,-0.45288,-0.44114,-0.44739,-0.46677,-0.43608,-0.46503,-0.45453,-0.47404,-0.49387,-0.48963,-0.46627,-0.46668,-0.45414,-0.47522,-0.49283,-0.48768,-0.47599,-0.47859,-0.48644,-0.48198,-0.50604,-0.50343,-0.50421,-0.50764,-0.51794,-0.52194,-0.49931,-0.50516,-0.51484,-0.51756,-0.52061,-0.53011,-0.51286,-0.52007,-0.51954,-0.52271,-0.52941,-0.53341,-0.53683,-0.54406,-0.55086,-0.55158,-0.55242,-0.5469,-0.54419,-0.55857,-0.54566,-0.55012,-0.54115,-0.55798,-0.55899,-0.56267,-0.55629,-0.57129,-0.58603,-0.56964,-0.56838,-0.57553,-0.57282,-0.57103,-0.58628,-0.58227,-0.58708,-0.5753,-0.58566,-0.59728,-0.60183,-0.5961,-0.59605,-0.59791,-0.60032,-0.59459,-0.59099,-0.60051,-0.61166,-0.60579,-0.60204,-0.6021,-0.60964,-0.59984,-0.60018,-0.60373,-0.61004,-0.60186,-0.61311,-0.61466,-0.6117,-0.61669,-0.61992,-0.61079,-0.62177,-0.62307,-0.6185,-0.63347,-0.63104,-0.62168,-0.63495,-0.6311,-0.63381,-0.63744,-0.63698,-0.63858,-0.63824,-0.6383,-0.64143,-0.641,-0.63249,-0.63477,-0.6314,-0.64233,-0.64521,-0.64121,-0.63806,-0.64133,-0.64531,-0.64101,-0.63947,-0.63929,-0.6442,-0.64877
0.63569,0.63346,0.63896,0.635,0.63931,0.62913,0.63301,0.63593,0.6374,0.62947,0.63028,0.63224,0.62394,0.6282,0.61887,0.61853,0.62286,0.62038,0.62377,0.62175,0.62296,0.61855,0.61798,0.61576,0.62027,0.60993,0.61354,0.61351,0.60995,0.61453,0.61058,0.60613,0.61143,0.61022,0.60912,0.60489,0.60208,0.60057,0.60602,0.60101,0.5907,0.59532,0.60178,0.59255,0.58437,0.59176,0.59094,0.59625,0.58195,0.58269,0.58116,0.5853,0.58178,0.58406,0.57267,0.57272,0.5691,0.56172,0.5727,0.58116,0.56471,0.56116,0.56438,0.554,0.55161,0.5624,0.56201,0.55572,0.54728,0.55212,0.55503,0.54871,0.5426,0.54739,0.55353,0.54406,0.52966,0.52147,0.53525,0.56047,0.53839,0.53363,0.5435,0.5304,0.51537,0.53005,0.52412,0.5213,0.50909,0.51256,0.4943,0.50803,0.48868,0.48513,0.50427,0.51515,0.50178,0.51059,0.47968,0.49497,0.48264,0.47951,0.48312,0.47875,0.4833,0.46407,0.47213,0.466,0.4528,0.43718,0.44822,0.44778,0.43819,0.44961,0.44122,0.43613,0.44527,0.4325,0.43548,0.43327,0.39725,0.40934,0.39412,0.38794,0.4095,0.43044,0.4297,0.30466,-0.24623,-0.40961,-0.45905,-0.41474,-0.40518,-0.43569,-0.43863,-0.43906,-0.44701,-0.4414,-0.43887,-0.46439,-0.44141,-0.44533,-0.4452,-0.48013,-0.49188,-0.49796,-0.51879,-0.49104,-0.47377,-0.49396,-0.49509,-0.47236,-0.45687,-0.50049,-0.50763,-0.49643,-0.51505,-0.49502,-0.48611,-0.48475,-0.50414,-0.52726,-0.50307,-0.5034,-0.51565,-0.52307,-0.51602,-0.51309,-0.51085,-0.54378,-0.53715,-0.53204,-0.52387,-0.51283,-0.53373,-0.54394,-0.55217,-0.55804,-0.53804,-0.54631,-0.56027,-0.54791,-0.55972,-0.5685,-0.56189,-0.55736,-0.5487,-0.56674,-0.56539,-0.57694,-0.58082,-0.56201,-0.57139,-0.57729,-0.57594,-0.5715,-0.58069,-0.57736,-0.58333,-0.58212,-0.589,-0.58346,-0.60367,-0.5936,-0.5897,-0.59528,-0.60778,-0.60098,-0.59589,-0.5976,-0.60136,-0.59013,-0.59628,-0.59698,-0.61155,-0.6123,-0.60864,-0.60808,-0.61635,-0.60547,-0.61786,-0.62337,-0.6115,-0.62164,-0.62773,-0.62657,-0.61861,-0.62016,-0.61757,-0.62723,-0.61834,-0.6174,-0.62865,-0.63023,-0.62615,-0.63404,-0.62266,-0.62602,-0.63291,-0.63229,-0.63585,-0.63525,-0.63703,-0.64355,-0.63449,-0.63845,-0.64019,-0.63774,-0.63438,-0.63918,-0.64069,-0.64164,-0.63993,-0.63798,-0.64743,-0.65612
0.63655,0.63259,0.63505,0.63178,0.63826,0.63399,0.63408,0.63146,0.62816,0.6316,0.63048,0.63244,0.62726,0.6255,0.61993,0.61133,0.61965,0.62654,0.62789,0.62029,0.61764,0.61411,0.6176,0.62297,0.61858,0.61304,0.60906,0.60814,0.60328,0.60827,0.61106,0.61672,0.61056,0.60595,0.6091,0.61137,0.60116,0.5947,0.5912,0.5943,0.601,0.59452,0.59372,0.58986,0.58317,0.58512,0.58906,0.59346,0.58623,0.57988,0.58764,0.58413,0.57869,0.58025,0.57429,0.5735,0.58016,0.5665,0.57152,0.57191,0.55614,0.55442,0.56271,0.55663,0.56277,0.56481,0.5668,0.54546,0.54722,0.55015,0.54278,0.55199,0.5485,0.54048,0.55708,0.53942,0.52403,0.52584,0.54073,0.54396,0.53194,0.53055,0.52883,0.53505,0.53166,0.53196,0.51946,0.51874,0.50293,0.50462,0.50078,0.51717,0.50939,0.48666,0.50175,0.50604,0.49349,0.48383,0.49138,0.48837,0.47607,0.49013,0.48234,0.47124,0.47075,0.44664,0.45967,0.46088,0.45213,0.44238,0.45736,0.45681,0.43415,0.43392,0.46446,0.45466,0.41793,0.43253,0.4519,0.42416,0.42438,0.4401,0.42529,0.40015,0.42128,0.39439,0.41951,0.29986,-0.30307,-0.42675,-0.43762,-0.4349,-0.42162,-0.40695,-0.40704,-0.43626,-0.46796,-0.4483,-0.46431,-0.48202,-0.46746,-0.45298,-0.45822,-0.4831,-0.47213,-0.462,-0.48891,-0.47322,-0.47383,-0.49406,-0.50434,-0.48789,-0.47699,-0.46558,-0.48793,-0.478,-0.49145,-0.49473,-0.48313,-0.48623,-0.48794,-0.50399,-0.51698,-0.51799,-0.50052,-0.52436,-0.51034,-0.52383,-0.51987,-0.53244,-0.52706,-0.53558,-0.52869,-0.52905,-0.52933,-0.54013,-0.55822,-0.55654,-0.53223,-0.54941,-0.55519,-0.55127,-0.55156,-0.55814,-0.55989,-0.57143,-0.57529,-0.55591,-0.55919,-0.57003,-0.57727,-0.56452,-0.56437,-0.56827,-0.57689,-0.57709,-0.58435,-0.60492,-0.59128,-0.58514,-0.59198,-0.58707,-0.60143,-0.59412,-0.59288,-0.59659,-0.60322,-0.59706,-0.59828,-0.59777,-0.59673,-0.59938,-0.59427,-0.59866,-0.60616,-0.60822,-0.61059,-0.61106,-0.62015,-0.62165,-0.62032,-0.62377,-0.62108,-0.61537,-0.61173,-0.62054,-0.61506,-0.61529,-0.62488,-0.62268,-0.61886,-0.62057,-0.63016,-0.63043,-0.63335,-0.63598,-0.62195,-0.61673,-0.63102,-0.63179,-0.63185,-0.64001,-0.63786,-0.63963,-0.64107,-0.64423,-0.63695,-0.64081,-0.6438,-0.64017,-0.64662,-0.64506,-0.64387,-0.64791,-0.64902,-0.6487
0.63208,0.63465,0.6336,0.63137,0.63637,0.63246,0.63563,0.63188,0.62915,0.62728,0.63124,0.63268,0.62967,0.62491,0.62601,0.62383,0.61911,0.62762,0.62854,0.61493,0.61852,0.61574,0.61129,0.61572,0.61334,0.61517,0.61294,0.60784,0.61001,0.61355,0.60787,0.61275,0.61271,0.60394,0.6029,0.60758,0.60007,0.59853,0.59387,0.6051,0.60756,0.59068,0.60151,0.59065,0.593,0.58776,0.58349,0.59055,0.58339,0.57786,0.57273,0.58023,0.57267,0.5763,0.58094,0.57748,0.57742,0.58359,0.57622,0.56954,0.5718,0.55798,0.56359,0.56397,0.55874,0.55222,0.56045,0.56172,0.55368,0.54821,0.5453,0.54864,0.55149,0.54829,0.54124,0.52947,0.5354,0.52907,0.52993,0.52477,0.52319,0.52379,0.51698,0.53248,0.52858,0.52639,0.52014,0.50127,0.50611,0.51627,0.51051,0.51148,0.50406,0.48668,0.5053,0.50818,0.49137,0.49073,0.49138,0.47809,0.49155,0.48679,0.46505,0.48102,0.4961,0.46826,0.46,0.464,0.44304,0.44195,0.45113,0.44135,0.44729,0.43955,0.43751,0.44859,0.44662,0.44654,0.44345,0.41916,0.43362,0.45901,0.44342,0.41636,0.43381,0.4035,0.42492,0.29949,-0.29857,-0.42841,-0.43958,-0.43214,-0.43015,-0.43412,-0.44381,-0.43955,-0.42277,-0.43503,-0.44412,-0.4556,-0.47524,-0.47189,-0.45811,-0.4783,-0.47988,-0.46144,-0.47109,-0.48663,-0.48683,-0.46879,-0.47434,-0.50336,-0.50909,-0.50019,-0.4707,-0.4861,-0.50074,-0.49755,-0.50277,-0.51242,-0.50779,-0.50162,-0.52195,-0.50559,-0.51795,-0.52364,-0.52201,-0.52127,-0.51798,-0.52141,-0.52141,-0.53134,-0.50509,-0.54123,-0.53713,-0.54474,-0.54881,-0.54596,-0.53148,-0.56145,-0.5603,-0.55962,-0.55352,-0.55481,-0.55738,-0.55883,-0.5741,-0.56291,-0.55403,-0.55354,-0.57927,-0.57854,-0.56747,-0.572,-0.58254,-0.5761,-0.5798,-0.58763,-0.5995,-0.58408,-0.58443,-0.59657,-0.59813,-0.58975,-0.59195,-0.59092,-0.59429,-0.59938,-0.61104,-0.60037,-0.58967,-0.61389,-0.60694,-0.60125,-0.59254,-0.60545,-0.59964,-0.6171,-0.62007,-0.61295,-0.61447,-0.62101,-0.61746,-0.61111,-0.61504,-0.62337,-0.62613,-0.62435,-0.62502,-0.63028,-0.62617,-0.6297,-0.63048,-0.62544,-0.6417,-0.63712,-0.6341,-0.62439,-0.62713,-0.63077,-0.63355,-0.63562,-0.63173,-0.62934,-0.63376,-0.64499,-0.6376,-0.64619,-0.64829,-0.64124,-0.64753,-0.64381,-0.64245,-0.64821,-0.64397,-0.65068
0.63915,0.63495,0.63419,0.63219,0.6336,0.63209,0.63488,0.63124,0.63182,0.62887,0.62824,0.62816,0.62865,0.63326,0.62858,0.62812,0.62359,0.61833,0.62654,0.61818,0.61753,0.61137,0.61276,0.61557,0.61246,0.61701,0.61237,0.60999,0.60899,0.60837,0.60814,0.60611,0.60237,0.59767,0.59872,0.60236,0.59626,0.58855,0.59203,0.60414,0.60722,0.59108,0.58829,0.58198,0.58711,0.58785,0.58151,0.57951,0.59881,0.58948,0.57472,0.58395,0.5818,0.58709,0.5695,0.57073,0.57306,0.56556,0.56139,0.57072,0.57226,0.56678,0.57254,0.56639,0.55877,0.54863,0.55726,0.56405,0.55002,0.54149,0.5448,0.53766,0.54455,0.55672,0.53774,0.5436,0.54304,0.54428,0.53264,0.51621,0.53968,0.53688,0.51778,0.52871,0.51801,0.50562,0.51805,0.50249,0.51047,0.52065,0.49918,0.49938,0.49952,0.48759,0.49726,0.51421,0.48259,0.4892,0.50061,0.47039,0.48669,0.48545,0.47075,0.48931,0.48867,0.4704,0.45187,0.46571,0.47232,0.46508,0.46374,0.4315,0.42827,0.45117,0.44947,0.44801,0.43288,0.44336,0.45324,0.43278,0.44704,0.44525,0.43192,0.42247,0.40943,0.4118,0.43059,0.31457,-0.26079,-0.43758,-0.45348,-0.41803,-0.40725,-0.4405,-0.45121,-0.44623,-0.44497,-0.45697,-0.45766,-0.45895,-0.45757,-0.45066,-0.43803,-0.43371,-0.46441,-0.46569,-0.48004,-0.50269,-0.49584,-0.48065,-0.4693,-0.4874,-0.49583,-0.49782,-0.48794,-0.50766,-0.50352,-0.5189,-0.50805,-0.50849,-0.50141,-0.50453,-0.50085,-0.49311,-0.53304,-0.53802,-0.52391,-0.52698,-0.51728,-0.53282,-0.53364,-0.52981,-0.52054,-0.54418,-0.55543,-0.56137,-0.54562,-0.528,-0.52566,-0.55166,-0.54565,-0.55232,-0.57713,-0.57044,-0.56485,-0.55552,-0.55113,-0.57069,-0.57131,-0.5689,-0.58239,-0.57522,-0.56947,-0.57548,-0.58653,-0.58327,-0.58289,-0.58557,-0.58718,-0.57721,-0.57911,-0.59197,-0.58734,-0.5923,-0.599,-0.59597,-0.5998,-0.58942,-0.60166,-0.60855,-0.59955,-0.6102,-0.61009,-0.60375,-0.60425,-0.61126,-0.59999,-0.62376,-0.62125,-0.61371,-0.62471,-0.61385,-0.60981,-0.6134,-0.60776,-0.62205,-0.61785,-0.62345,-0.62458,-0.61992,-0.62016,-0.62756,-0.63046,-0.62536,-0.63264,-0.63614,-0.63564,-0.631,-0.63141,-0.63825,-0.64,-0.63477,-0.63404,-0.63312,-0.64084,-0.6314,-0.63659,-0.64305,-0.63427,-0.63148,-0.63941,-0.64277,-0.64726,-0.6477,-0.64787,-0.64498
0.6361,0.63496,0.63743,0.63376,0.63183,0.63128,0.63324,0.62846,0.63162,0.62695,0.62376,0.62376,0.62278,0.63198,0.62716,0.62466,0.62441,0.61911,0.62077,0.62193,0.61733,0.61864,0.62118,0.62433,0.61875,0.61112,0.60621,0.61518,0.61408,0.60259,0.60735,0.60627,0.60874,0.60904,0.59945,0.6028,0.60238,0.59164,0.59772,0.59806,0.59431,0.59387,0.59362,0.58553,0.58502,0.59351,0.59097,0.5909,0.58727,0.58838,0.58185,0.57976,0.58027,0.58595,0.57826,0.57864,0.56905,0.56592,0.56148,0.56032,0.56876,0.56598,0.5703,0.5648,0.566,0.55946,0.56289,0.54785,0.54686,0.54824,0.55862,0.5523,0.53764,0.54572,0.5387,0.53698,0.53103,0.53639,0.52132,0.52532,0.54131,0.54103,0.5325,0.53327,0.52951,0.51787,0.53462,0.51071,0.50404,0.50521,0.50106,0.50343,0.51798,0.4985,0.51326,0.50042,0.48505,0.48678,0.4942,0.49596,0.49857,0.48889,0.4688,0.48577,0.48539,0.47069,0.45992,0.47582,0.46213,0.4561,0.461,0.45466,0.44922,0.46175,0.42295,0.40351,0.42316,0.44443,0.43955,0.44981,0.44361,0.41968,0.38842,0.40487,0.42485,0.42358,0.40405,0.2664,-0.30153,-0.43879,-0.43212,-0.42203,-0.4277,-0.44041,-0.4311,-0.42431,-0.43549,-0.45726,-0.47767,-0.45116,-0.47838,-0.4823,-0.47276,-0.46298,-0.4629,-0.46305,-0.45947,-0.48779,-0.46637,-0.48813,-0.4762,-0.49679,-0.48884,-0.48365,-0.47728,-0.49178,-0.50007,-0.49485,-0.51595,-0.51365,-0.51,-0.49173,-0.51059,-0.51039,-0.5119,-0.52363,-0.52299,-0.52154,-0.51413,-0.52628,-0.53839,-0.54234,-0.53259,-0.51562,-0.53347,-0.5481,-0.55115,-0.54738,-0.54037,-0.54414,-0.55434,-0.55756,-0.56515,-0.56561,-0.55751,-0.56975,-0.57353,-0.56747,-0.57475,-0.5808,-0.56395,-0.57203,-0.58193,-0.58104,-0.58065,-0.58986,-0.58846,-0.59296,-0.58483,-0.58066,-0.57665,-0.58316,-0.5851,-0.59798,-0.59139,-0.59187,-0.60161,-0.59602,-0.60459,-0.60291,-0.59905,-0.59423,-0.60496,-0.60516,-0.60122,-0.60616,-0.60396,-0.61029,-0.62169,-0.62369,-0.6217,-0.61409,-0.61217,-0.61798,-0.60906,-0.61561,-0.60376,-0.61641,-0.62104,-0.61326,-0.62058,-0.62737,-0.63121,-0.61982,-0.6214,-0.63624,-0.63661,-0.63538,-0.63781,-0.64165,-0.64156,-0.64316,-0.64006,-0.62952,-0.63971,-0.64476,-0.63417,-0.63803,-0.64737,-0.64045,-0.63817,-0.64624,-0.64974,-0.64438,-0.64236,-0.64549
0.63461,0.63883,0.63596,0.63178,0.63068,0.63231,0.63142,0.62855,0.62395,0.62261,0.62856,0.62839,0.62743,0.6267,0.62352,0.62086,0.61982,0.62175,0.62102,0.62074,0.61543,0.61489,0.61805,0.6127,0.60999,0.61398,0.61107,0.60673,0.60714,0.60431,0.61068,0.60728,0.60846,0.60919,0.60147,0.6005,0.59863,0.59633,0.59613,0.60215,0.59468,0.59419,0.59861,0.5977,0.58943,0.5883,0.58695,0.58349,0.59493,0.59066,0.57868,0.57472,0.57272,0.58262,0.58052,0.57664,0.57938,0.57583,0.57892,0.56756,0.57188,0.56876,0.5536,0.55879,0.56794,0.5515,0.54633,0.53933,0.54252,0.5563,0.55347,0.53739,0.54239,0.5401,0.54433,0.54154,0.53873,0.53543,0.5448,0.54269,0.53939,0.5312,0.52702,0.52032,0.52325,0.5185,0.52463,0.51302,0.50641,0.5046,0.49474,0.47925,0.51282,0.49542,0.50594,0.48551,0.49842,0.47876,0.48317,0.49354,0.4868,0.47935,0.46215,0.4745,0.47489,0.46406,0.47829,0.46803,0.46075,0.45874,0.44959,0.4498,0.44967,0.45943,0.45249,0.43238,0.45474,0.45367,0.43073,0.42417,0.41771,0.42106,0.40181,0.40418,0.4098,0.39997,0.40141,0.25344,-0.29763,-0.42306,-0.41039,-0.43153,-0.44093,-0.44323,-0.42649,-0.40027,-0.42354,-0.42988,-0.45658,-0.46781,-0.46776,-0.46463,-0.46031,-0.45356,-0.45725,-0.47142,-0.46554,-0.47946,-0.46294,-0.48519,-0.48827,-0.48872,-0.47596,-0.49343,-0.49004,-0.51415,-0.52388,-0.48283,-0.49493,-0.50863,-0.51647,-0.5002,-0.5152,-0.52753,-0.50701,-0.51679,-0.52771,-0.51367,-0.5247,-0.53628,-0.54629,-0.54605,-0.54514,-0.53462,-0.52216,-0.53614,-0.55429,-0.55033,-0.54628,-0.54513,-0.54869,-0.55419,-0.53894,-0.55377,-0.55539,-0.55265,-0.55161,-0.56688,-0.56207,-0.55788,-0.54752,-0.56637,-0.57875,-0.57973,-0.57704,-0.5844,-0.57567,-0.5718,-0.58013,-0.58286,-0.58563,-0.59021,-0.59016,-0.59909,-0.59857,-0.5941,-0.59874,-0.58785,-0.59527,-0.59914,-0.60305,-0.60474,-0.61355,-0.60599,-0.6,-0.60987,-0.5998,-0.61301,-0.62208,-0.61601,-0.62117,-0.61779,-0.61596,-0.61913,-0.61783,-0.62382,-0.62677,-0.61976,-0.62397,-0.62545,-0.62549,-0.62819,-0.63022,-0.61981,-0.62268,-0.64362,-0.63276,-0.62831,-0.63014,-0.62587,-0.63587,-0.64428,-0.63727,-0.63001,-0.64261,-0.64372,-0.64104,-0.64401,-0.63835,-0.63769,-0.6469,-0.64893,-0.64962,-0.64595,-0.64944,-0.64805
0.63725,0.63761,0.63489,0.63169,0.63409,0.62914,0.62101,0.6296,0.62797,0.62272,0.6286,0.62327,0.62385,0.62234,0.62678,0.62214,0.62025,0.62393,0.62191,0.61834,0.61026,0.6113,0.61682,0.61648,0.61485,0.61755,0.61227,0.60566,0.61017,0.60851,0.60616,0.60915,0.60598,0.60226,0.60466,0.60474,0.59742,0.59366,0.59615,0.60327,0.60104,0.59253,0.59496,0.59399,0.59439,0.59093,0.58781,0.58659,0.59466,0.58789,0.58454,0.57351,0.57508,0.58739,0.57971,0.55978,0.57033,0.57991,0.56677,0.55405,0.56756,0.56001,0.54635,0.55293,0.56283,0.54954,0.54921,0.55177,0.56172,0.5542,0.54135,0.55349,0.55667,0.5501,0.53977,0.53172,0.53932,0.53641,0.54837,0.53969,0.52466,0.52169,0.52892,0.52761,0.52826,0.5081,0.51914,0.52053,0.51519,0.50611,0.49246,0.50405,0.52689,0.51057,0.50424,0.51039,0.49861,0.47158,0.48048,0.48334,0.488,0.47449,0.47253,0.46745,0.45241,0.44874,0.45301,0.46016,0.4565,0.45223,0.46205,0.44558,0.4465,0.4489,0.44252,0.40618,0.442,0.46059,0.44728,0.39928,0.41623,0.43082,0.43466,0.41716,0.41914,0.41651,0.39536,0.26675,-0.30701,-0.44743,-0.4151,-0.43854,-0.45955,-0.46368,-0.44958,-0.42229,-0.40451,-0.44264,-0.45127,-0.446,-0.44597,-0.42948,-0.43143,-0.4403,-0.46889,-0.48665,-0.46954,-0.4809,-0.46325,-0.47516,-0.48191,-0.49683,-0.49328,-0.4954,-0.48612,-0.47468,-0.48626,-0.49261,-0.48355,-0.48975,-0.52174,-0.52268,-0.50033,-0.51373,-0.52094,-0.51928,-0.53147,-0.51798,-0.51424,-0.52864,-0.51953,-0.5218,-0.52821,-0.53791,-0.54174,-0.54083,-0.54599,-0.55198,-0.55723,-0.54143,-0.54031,-0.5365,-0.53289,-0.56436,-0.55447,-0.55462,-0.57114,-0.56898,-0.56295,-0.55946,-0.56942,-0.57869,-0.57602,-0.56867,-0.58362,-0.57083,-0.57987,-0.58571,-0.58057,-0.5859,-0.58375,-0.58363,-0.57795,-0.59722,-0.59721,-0.57987,-0.58076,-0.58538,-0.60398,-0.59847,-0.60126,-0.5968,-0.60667,-0.61663,-0.60431,-0.60767,-0.60948,-0.61236,-0.60283,-0.60245,-0.61194,-0.61123,-0.61205,-0.61057,-0.62204,-0.61742,-0.62224,-0.6303,-0.62687,-0.62016,-0.62073,-0.62587,-0.62282,-0.61254,-0.62044,-0.6344,-0.62671,-0.63568,-0.63665,-0.63564,-0.62964,-0.63578,-0.64304,-0.64155,-0.63484,-0.6351,-0.63581,-0.63834,-0.63945,-0.63489,-0.63563,-0.64391,-0.64229,-0.64589,-0.64593,-0.64944
0.63151,0.63283,0.63955,0.63816,0.63353,0.62736,0.62448,0.62559,0.62902,0.62646,0.62181,0.62353,0.62687,0.62376,0.62308,0.61781,0.62017,0.62132,0.61875,0.61824,0.61471,0.61848,0.61992,0.61933,0.61255,0.61504,0.61388,0.61033,0.61205,0.60705,0.606,0.60843,0.61029,0.60381,0.59887,0.60533,0.60281,0.60628,0.6068,0.60072,0.59573,0.58591,0.58635,0.58862,0.59334,0.59497,0.58703,0.58842,0.5881,0.58219,0.58379,0.57211,0.58605,0.58203,0.57268,0.55831,0.56822,0.57459,0.56437,0.5531,0.54887,0.57411,0.56634,0.558,0.56243,0.55521,0.56047,0.55739,0.56015,0.55747,0.54672,0.53767,0.55792,0.55482,0.55085,0.54939,0.53819,0.53693,0.52981,0.52502,0.53009,0.53394,0.52863,0.52129,0.52558,0.50168,0.49216,0.5103,0.51776,0.51281,0.49726,0.50777,0.50448,0.49204,0.49351,0.4957,0.49717,0.48112,0.47481,0.48028,0.4963,0.48132,0.47024,0.48471,0.47245,0.48056,0.47983,0.46739,0.46952,0.44176,0.45592,0.46146,0.46375,0.45196,0.44361,0.41733,0.42424,0.45596,0.46697,0.43858,0.43869,0.44326,0.4204,0.42033,0.43994,0.44084,0.4046,0.26481,-0.30815,-0.44313,-0.41675,-0.41453,-0.43302,-0.44216,-0.43251,-0.45262,-0.43474,-0.44505,-0.45246,-0.45412,-0.46565,-0.43765,-0.43949,-0.45971,-0.48446,-0.51299,-0.49776,-0.46912,-0.46985,-0.47184,-0.48316,-0.5132,-0.49663,-0.47704,-0.45571,-0.48772,-0.49845,-0.48609,-0.49179,-0.48038,-0.49832,-0.52384,-0.48744,-0.50759,-0.53231,-0.50244,-0.51638,-0.49794,-0.51515,-0.51229,-0.50891,-0.52378,-0.53318,-0.53577,-0.52527,-0.53934,-0.55093,-0.57134,-0.55602,-0.53689,-0.54951,-0.54077,-0.55638,-0.56237,-0.55715,-0.56298,-0.56135,-0.55497,-0.5613,-0.55062,-0.56141,-0.57844,-0.56161,-0.56742,-0.57423,-0.57903,-0.57841,-0.56841,-0.59082,-0.59721,-0.5901,-0.57848,-0.57594,-0.59724,-0.58903,-0.59019,-0.59707,-0.59719,-0.58991,-0.60425,-0.61112,-0.60745,-0.60128,-0.60741,-0.60243,-0.60132,-0.61462,-0.60371,-0.61104,-0.61672,-0.62058,-0.61527,-0.61893,-0.61408,-0.61127,-0.60735,-0.6158,-0.62088,-0.61419,-0.61513,-0.61701,-0.62813,-0.62684,-0.62097,-0.62758,-0.6332,-0.63161,-0.62897,-0.63556,-0.63295,-0.63414,-0.63581,-0.64192,-0.6373,-0.63496,-0.63999,-0.63713,-0.63437,-0.63813,-0.64027,-0.64233,-0.64693,-0.64456,-0.64753,-0.64315,-0.64669
0.63003,0.6341,0.63237,0.63296,0.63619,0.63489,0.63491,0.63266,0.63001,0.63526,0.62883,0.623,0.63061,0.62063,0.61757,0.61259,0.62249,0.62478,0.61874,0.62384,0.62089,0.626,0.61332,0.61489,0.61439,0.61476,0.60786,0.60754,0.60656,0.60859,0.60356,0.60733,0.60327,0.59649,0.60294,0.60924,0.59944,0.60396,0.60283,0.59397,0.59115,0.5948,0.59992,0.58857,0.5855,0.58937,0.58657,0.58672,0.58066,0.58297,0.59023,0.58222,0.57226,0.58059,0.5743,0.57348,0.5679,0.58035,0.5727,0.55794,0.56835,0.5719,0.56479,0.55886,0.56204,0.56012,0.55896,0.55174,0.55095,0.54853,0.53504,0.54729,0.54612,0.54647,0.54896,0.54,0.53889,0.54201,0.52753,0.52361,0.53417,0.52782,0.5103,0.5134,0.51763,0.51569,0.49674,0.51269,0.51186,0.52059,0.51909,0.50688,0.49486,0.48829,0.50273,0.48885,0.48448,0.47501,0.48075,0.48297,0.47999,0.48106,0.45286,0.47532,0.46912,0.48104,0.48126,0.45595,0.44826,0.43934,0.4655,0.4551,0.43649,0.45711,0.44778,0.45361,0.44341,0.43157,0.43403,0.43417,0.4133,0.41528,0.42519,0.43743,0.40045,0.41604,0.41484,0.29064,-0.27256,-0.41416,-0.42152,-0.42638,-0.44394,-0.45084,-0.42864,-0.47597,-0.43586,-0.4357,-0.45014,-0.45906,-0.43516,-0.43111,-0.45239,-0.46256,-0.47468,-0.49541,-0.49053,-0.45875,-0.48244,-0.48139,-0.48367,-0.49217,-0.48213,-0.49453,-0.4999,-0.50182,-0.50371,-0.50421,-0.49944,-0.49707,-0.48912,-0.51196,-0.50126,-0.51226,-0.51171,-0.51009,-0.49748,-0.52039,-0.52867,-0.53513,-0.53583,-0.52548,-0.53759,-0.53839,-0.53488,-0.54864,-0.54856,-0.54142,-0.54444,-0.55382,-0.53638,-0.54497,-0.53447,-0.5412,-0.5625,-0.56078,-0.55639,-0.58072,-0.57664,-0.55289,-0.55305,-0.57153,-0.57002,-0.57095,-0.57418,-0.58461,-0.57351,-0.57178,-0.58705,-0.59421,-0.59918,-0.58866,-0.58324,-0.58932,-0.5987,-0.59472,-0.5914,-0.59203,-0.59674,-0.61135,-0.60914,-0.60951,-0.60032,-0.59552,-0.60165,-0.59802,-0.61113,-0.61053,-0.60841,-0.61014,-0.6153,-0.61503,-0.61868,-0.61168,-0.62305,-0.62124,-0.61649,-0.62149,-0.62011,-0.62121,-0.62425,-0.62458,-0.62057,-0.631,-0.62248,-0.63078,-0.64268,-0.6301,-0.63718,-0.6313,-0.6318,-0.63579,-0.64199,-0.63678,-0.64067,-0.64405,-0.64161,-0.64334,-0.64508,-0.64341,-0.64784,-0.65063,-0.64506,-0.64291,-0.64326,-0.65117
0.6321,0.63534,0.62953,0.6362,0.63671,0.6326,0.63074,0.62896,0.62981,0.6301,0.62642,0.62542,0.62474,0.6216,0.62714,0.62305,0.61975,0.61664,0.61714,0.62579,0.61622,0.61866,0.61766,0.61719,0.61316,0.60797,0.61457,0.61677,0.61801,0.60773,0.60684,0.60904,0.60826,0.60287,0.60328,0.59754,0.59854,0.59917,0.59923,0.58688,0.58684,0.60107,0.59436,0.5943,0.58075,0.58343,0.58619,0.58381,0.58641,0.58491,0.58686,0.57938,0.56993,0.57781,0.57661,0.58042,0.57692,0.58184,0.57807,0.57578,0.56796,0.5703,0.56521,0.54498,0.55057,0.55369,0.55495,0.54804,0.53946,0.53903,0.52895,0.54291,0.54531,0.54214,0.53458,0.52873,0.53927,0.54582,0.52497,0.52036,0.53316,0.53335,0.5227,0.52728,0.52189,0.53102,0.52348,0.51673,0.51861,0.51533,0.50891,0.48133,0.49311,0.5188,0.51876,0.48394,0.48347,0.49989,0.49094,0.48776,0.48568,0.49349,0.46844,0.47364,0.46141,0.4544,0.46099,0.45946,0.46357,0.47047,0.45622,0.44647,0.42386,0.44293,0.45364,0.46563,0.44054,0.43409,0.4367,0.40929,0.40424,0.41685,0.45086,0.42363,0.39589,0.40746,0.42015,0.28591,-0.27832,-0.40739,-0.40273,-0.44085,-0.44591,-0.41488,-0.42629,-0.44497,-0.464,-0.46238,-0.47545,-0.46544,-0.44443,-0.44982,-0.4473,-0.44515,-0.45685,-0.46346,-0.45102,-0.45709,-0.45933,-0.47799,-0.47097,-0.47772,-0.4941,-0.48416,-0.48235,-0.47945,-0.49123,-0.52567,-0.49384,-0.49687,-0.48942,-0.49859,-0.51436,-0.50383,-0.5012,-0.53036,-0.50028,-0.51892,-0.52141,-0.53911,-0.54506,-0.51896,-0.53221,-0.55118,-0.55041,-0.54642,-0.54249,-0.53764,-0.54248,-0.54327,-0.54471,-0.55177,-0.55046,-0.54357,-0.57245,-0.55962,-0.56233,-0.56797,-0.57324,-0.57401,-0.57185,-0.56673,-0.57003,-0.58408,-0.57038,-0.56487,-0.5704,-0.58042,-0.57877,-0.5801,-0.5882,-0.59444,-0.5929,-0.5912,-0.58717,-0.59968,-0.58828,-0.59105,-0.58856,-0.59758,-0.6012,-0.59672,-0.60273,-0.59629,-0.59691,-0.60587,-0.60731,-0.60378,-0.60265,-0.61958,-0.61048,-0.60244,-0.61297,-0.61224,-0.62715,-0.61372,-0.60659,-0.62225,-0.62632,-0.62269,-0.62366,-0.62321,-0.62,-0.62697,-0.62095,-0.62697,-0.63069,-0.63116,-0.63433,-0.63233,-0.63122,-0.6298,-0.63616,-0.63568,-0.6339,-0.6461,-0.64781,-0.64511,-0.64558,-0.64416,-0.64102,-0.63982,-0.63757,-0.64618,-0.64305,-0.64643
0.63019,0.63008,0.63397,0.63604,0.62732,0.62508,0.62703,0.63295,0.63065,0.62735,0.62937,0.63084,0.63127,0.62245,0.62364,0.62434,0.61934,0.62459,0.61737,0.62652,0.62222,0.61063,0.6175,0.61833,0.61275,0.61092,0.61842,0.60992,0.61253,0.60973,0.6097,0.61005,0.61457,0.60325,0.60207,0.60052,0.59507,0.59677,0.6014,0.59853,0.58995,0.59412,0.58793,0.59606,0.59882,0.5858,0.58427,0.5891,0.58978,0.59047,0.58556,0.59135,0.59255,0.5755,0.56713,0.56913,0.57191,0.5719,0.56637,0.57376,0.56873,0.56792,0.56908,0.55755,0.55518,0.54954,0.54922,0.5573,0.55083,0.55302,0.53895,0.53033,0.54805,0.54529,0.53496,0.54938,0.5299,0.52233,0.53583,0.53481,0.52398,0.53705,0.54217,0.52649,0.52845,0.5289,0.52683,0.5228,0.51962,0.51844,0.51212,0.50037,0.49015,0.51627,0.52017,0.50112,0.48741,0.48892,0.47451,0.4763,0.481,0.46142,0.4773,0.48813,0.46236,0.45869,0.46919,0.47425,0.46979,0.45609,0.46734,0.46911,0.44996,0.43894,0.44367,0.44998,0.43644,0.44535,0.45913,0.43945,0.42988,0.44745,0.43921,0.4112,0.41203,0.40235,0.4161,0.27855,-0.29193,-0.43149,-0.41314,-0.43538,-0.46435,-0.45092,-0.42822,-0.41586,-0.41488,-0.45195,-0.45327,-0.4322,-0.47083,-0.49269,-0.47575,-0.47663,-0.48021,-0.45883,-0.44875,-0.47502,-0.43844,-0.46806,-0.47373,-0.48175,-0.49153,-0.50804,-0.47286,-0.47788,-0.5039,-0.49804,-0.48453,-0.47752,-0.49959,-0.49836,-0.50055,-0.50304,-0.51118,-0.53482,-0.54192,-0.52568,-0.50965,-0.52674,-0.52822,-0.53945,-0.53122,-0.54642,-0.54084,-0.53353,-0.52766,-0.5555,-0.54636,-0.52983,-0.54784,-0.56315,-0.5627,-0.55129,-0.56808,-0.55282,-0.54998,-0.54913,-0.56485,-0.56973,-0.57452,-0.57498,-0.57856,-0.5851,-0.57778,-0.56407,-0.57047,-0.58965,-0.5803,-0.57944,-0.59572,-0.59225,-0.59324,-0.59316,-0.59336,-0.60201,-0.58985,-0.58041,-0.58937,-0.59038,-0.59511,-0.59358,-0.60133,-0.59435,-0.58512,-0.603,-0.61765,-0.60521,-0.61049,-0.62601,-0.61033,-0.60884,-0.60567,-0.60865,-0.61942,-0.60376,-0.60319,-0.62112,-0.62594,-0.61974,-0.62421,-0.61827,-0.62638,-0.62714,-0.62689,-0.62452,-0.62861,-0.63975,-0.62824,-0.63194,-0.63274,-0.63676,-0.64277,-0.63601,-0.63482,-0.63562,-0.64187,-0.64498,-0.64589,-0.64194,-0.64434,-0.63866,-0.64032,-0.64854,-0.65113,-0.64864
0.63004,0.62634,0.62765,0.63423,0.63119,0.62422,0.63042,0.63268,0.62617,0.62816,0.62715,0.62857,0.62464,0.62226,0.62237,0.61456,0.62153,0.62156,0.61699,0.62696,0.62188,0.60892,0.61339,0.61676,0.60064,0.6106,0.61469,0.61023,0.61095,0.60822,0.60426,0.60359,0.60456,0.6088,0.60095,0.60311,0.59742,0.60615,0.60341,0.59741,0.58839,0.58788,0.59832,0.59449,0.59401,0.58312,0.5796,0.59401,0.5899,0.57789,0.56454,0.58509,0.58428,0.57509,0.57106,0.57028,0.57191,0.56229,0.5579,0.57186,0.57577,0.571,0.56681,0.56048,0.57205,0.56367,0.5461,0.54171,0.53988,0.55015,0.55553,0.54042,0.54144,0.55365,0.53812,0.53558,0.53553,0.53195,0.54,0.53123,0.53594,0.52903,0.51978,0.51263,0.51488,0.51942,0.51446,0.50287,0.51192,0.50476,0.52026,0.50051,0.489,0.5115,0.4894,0.50771,0.50215,0.48201,0.477,0.48716,0.47763,0.45944,0.4818,0.47189,0.47765,0.46123,0.46947,0.4711,0.46078,0.43943,0.45325,0.45986,0.4557,0.42799,0.44088,0.44659,0.43292,0.44574,0.45075,0.42802,0.42271,0.42639,0.42504,0.42458,0.42727,0.41661,0.40937,0.27857,-0.29572,-0.40489,-0.4329,-0.42881,-0.44898,-0.45194,-0.43552,-0.40075,-0.38691,-0.41152,-0.41957,-0.43105,-0.4537,-0.49853,-0.46676,-0.47319,-0.44717,-0.46061,-0.48512,-0.48253,-0.44404,-0.47555,-0.49137,-0.47677,-0.50049,-0.49754,-0.4908,-0.49584,-0.48814,-0.47019,-0.48243,-0.48599,-0.5092,-0.5064,-0.50316,-0.50175,-0.52338,-0.5038,-0.52742,-0.52945,-0.51215,-0.53529,-0.52855,-0.54181,-0.5169,-0.54269,-0.52626,-0.52043,-0.51887,-0.52909,-0.54345,-0.55852,-0.55798,-0.56678,-0.5596,-0.54787,-0.55457,-0.54304,-0.55456,-0.55817,-0.56529,-0.57013,-0.57119,-0.56943,-0.57909,-0.5727,-0.57314,-0.56212,-0.57307,-0.57885,-0.582,-0.58076,-0.59571,-0.58627,-0.58787,-0.5949,-0.60047,-0.60347,-0.59017,-0.5818,-0.58653,-0.60487,-0.60766,-0.61428,-0.60849,-0.60056,-0.58779,-0.60843,-0.60599,-0.60279,-0.61243,-0.6129,-0.61222,-0.60868,-0.60225,-0.60792,-0.61169,-0.61679,-0.61618,-0.62265,-0.62319,-0.61921,-0.61961,-0.6269,-0.62708,-0.62517,-0.62396,-0.62825,-0.62661,-0.63126,-0.62592,-0.62406,-0.6274,-0.63453,-0.64098,-0.63989,-0.6382,-0.63099,-0.63409,-0.63875,-0.64741,-0.63976,-0.64125,-0.64413,-0.6452,-0.64599,-0.65851,-0.65111
0.63114,0.63546,0.63092,0.63192,0.63178,0.63005,0.62789,0.62855,0.62951,0.62802,0.62268,0.62784,0.62538,0.62536,0.62389,0.61685,0.61927,0.6196,0.61956,0.62749,0.62044,0.61526,0.61739,0.61646,0.60787,0.60967,0.61161,0.60854,0.59813,0.60411,0.6035,0.60168,0.60373,0.60688,0.5944,0.59699,0.61098,0.60513,0.5942,0.58681,0.59181,0.59017,0.59471,0.59288,0.59052,0.57988,0.58625,0.59533,0.58689,0.5787,0.57788,0.56869,0.55888,0.57507,0.57667,0.58321,0.57541,0.56514,0.55173,0.55461,0.56875,0.56239,0.55462,0.54664,0.54878,0.55644,0.56168,0.54332,0.54649,0.55457,0.5551,0.53954,0.53495,0.54796,0.5395,0.51574,0.52283,0.53857,0.53755,0.5267,0.53674,0.52654,0.52102,0.52403,0.51309,0.50549,0.49322,0.50121,0.51405,0.49384,0.49964,0.49722,0.50936,0.51208,0.48484,0.49032,0.49862,0.48444,0.48517,0.485,0.48433,0.4965,0.48154,0.46567,0.48034,0.47133,0.48148,0.48032,0.47042,0.45669,0.46031,0.42064,0.44074,0.44607,0.43693,0.45335,0.42451,0.45254,0.41581,0.39564,0.42658,0.41232,0.41924,0.42774,0.42048,0.42172,0.41576,0.28896,-0.25983,-0.39352,-0.42015,-0.42239,-0.46496,-0.45258,-0.41509,-0.41283,-0.42982,-0.43509,-0.44264,-0.41288,-0.42171,-0.47513,-0.46622,-0.49349,-0.47349,-0.46405,-0.4688,-0.47063,-0.45923,-0.47618,-0.48556,-0.46266,-0.48114,-0.48144,-0.48472,-0.49043,-0.49012,-0.47449,-0.49511,-0.50537,-0.51286,-0.49359,-0.52227,-0.48698,-0.51717,-0.51054,-0.50577,-0.51293,-0.51528,-0.51753,-0.50318,-0.50332,-0.52344,-0.53972,-0.53165,-0.52323,-0.52811,-0.52497,-0.52832,-0.55813,-0.54713,-0.55669,-0.54802,-0.55203,-0.55256,-0.55863,-0.55283,-0.5559,-0.56071,-0.55835,-0.5603,-0.55289,-0.57229,-0.57759,-0.57209,-0.57605,-0.56933,-0.56792,-0.58546,-0.58576,-0.59303,-0.58109,-0.58933,-0.58728,-0.5843,-0.59088,-0.58483,-0.58979,-0.58987,-0.59468,-0.60282,-0.60816,-0.60012,-0.609,-0.59861,-0.59299,-0.59809,-0.60616,-0.60541,-0.61541,-0.61405,-0.60699,-0.60606,-0.61447,-0.61741,-0.62304,-0.61001,-0.61286,-0.62453,-0.61306,-0.62359,-0.62973,-0.63358,-0.62817,-0.62154,-0.62247,-0.63228,-0.62832,-0.63394,-0.63193,-0.634,-0.63883,-0.63959,-0.63471,-0.63941,-0.64175,-0.63469,-0.63622,-0.64109,-0.63785,-0.64685,-0.64237,-0.64276,-0.64262,-0.65151,-0.6473
0.62764,0.63165,0.6351,0.63813,0.63782,0.63486,0.62829,0.62458,0.62982,0.63153,0.62799,0.62707,0.62242,0.62462,0.62229,0.62279,0.61645,0.61785,0.62041,0.6193,0.61953,0.61956,0.61711,0.62161,0.6137,0.61636,0.61595,0.60708,0.60199,0.60532,0.61003,0.60601,0.6055,0.60544,0.60059,0.59508,0.60908,0.605,0.59626,0.60077,0.60068,0.59291,0.59811,0.59139,0.58933,0.59193,0.58108,0.58613,0.58497,0.58028,0.58065,0.5763,0.56664,0.58172,0.57229,0.57538,0.57819,0.57701,0.56796,0.56641,0.57331,0.55908,0.56106,0.55163,0.54619,0.55168,0.5585,0.55106,0.54831,0.56448,0.55186,0.53899,0.53636,0.53965,0.54493,0.53852,0.53326,0.53543,0.53404,0.52975,0.54155,0.52049,0.51709,0.51393,0.53119,0.51281,0.51221,0.52377,0.51664,0.51575,0.50659,0.50247,0.49668,0.50814,0.51243,0.49925,0.48818,0.48717,0.47617,0.46728,0.47463,0.49105,0.49106,0.45684,0.46398,0.46442,0.45581,0.47679,0.47921,0.45863,0.43819,0.43796,0.42559,0.4419,0.44753,0.45338,0.43947,0.44985,0.44796,0.41408,0.40774,0.42766,0.4397,0.42769,0.40669,0.4132,0.41938,0.25584,-0.33176,-0.441,-0.43859,-0.42878,-0.42925,-0.4378,-0.44311,-0.41698,-0.44195,-0.44901,-0.47057,-0.43363,-0.45904,-0.45968,-0.44691,-0.45965,-0.47783,-0.48166,-0.47716,-0.45043,-0.45022,-0.47152,-0.48956,-0.48624,-0.51845,-0.4996,-0.46886,-0.46498,-0.47842,-0.48813,-0.50008,-0.51452,-0.51448,-0.50755,-0.5199,-0.50043,-0.52066,-0.51803,-0.48967,-0.51996,-0.52216,-0.5031,-0.50769,-0.51911,-0.52936,-0.5285,-0.5135,-0.53437,-0.55199,-0.555,-0.53616,-0.54734,-0.54132,-0.53562,-0.53019,-0.5599,-0.57089,-0.56007,-0.55935,-0.56092,-0.55848,-0.55882,-0.56567,-0.56265,-0.56841,-0.56495,-0.56293,-0.57831,-0.57997,-0.56779,-0.58932,-0.57739,-0.5754,-0.57758,-0.58877,-0.60019,-0.59389,-0.58526,-0.58965,-0.6002,-0.58719,-0.5818,-0.59281,-0.59071,-0.59283,-0.60449,-0.59865,-0.58376,-0.60479,-0.60145,-0.60509,-0.60952,-0.61206,-0.60918,-0.61368,-0.61441,-0.61872,-0.6173,-0.60871,-0.61265,-0.61892,-0.62242,-0.62976,-0.61977,-0.63471,-0.62567,-0.63075,-0.63211,-0.6292,-0.62571,-0.62622,-0.63565,-0.63125,-0.63828,-0.63181,-0.6309,-0.64114,-0.63827,-0.63958,-0.64664,-0.643,-0.6347,-0.6401,-0.63877,-0.63725,-0.63834,-0.64285,-0.63839
0.63132,0.63641,0.63998,0.6326,0.63353,0.62995,0.63065,0.63342,0.62683,0.62543,0.62743,0.62839,0.62235,0.62381,0.62758,0.62564,0.61568,0.61736,0.62409,0.62149,0.61805,0.61611,0.61656,0.61564,0.60953,0.60865,0.61119,0.60703,0.59972,0.60692,0.60093,0.60187,0.60214,0.61105,0.59863,0.6002,0.60409,0.60544,0.59923,0.60214,0.59111,0.59068,0.58397,0.58077,0.58695,0.58658,0.58352,0.58383,0.58302,0.57827,0.57864,0.58173,0.58405,0.57548,0.57506,0.58012,0.57742,0.57783,0.56994,0.55997,0.55964,0.5564,0.56562,0.55889,0.56207,0.57029,0.56451,0.54853,0.54627,0.55506,0.547,0.53621,0.5579,0.54176,0.53122,0.53526,0.54402,0.526,0.52316,0.52161,0.50896,0.51927,0.51403,0.5129,0.52369,0.50854,0.51113,0.51435,0.51157,0.51069,0.51892,0.49431,0.50396,0.50349,0.49521,0.50703,0.51683,0.48574,0.47286,0.49266,0.45749,0.4613,0.47257,0.47129,0.47619,0.43088,0.43703,0.47253,0.46516,0.4644,0.43414,0.44734,0.43139,0.44392,0.45397,0.44354,0.43833,0.44119,0.46701,0.42797,0.39226,0.41019,0.42541,0.41724,0.41237,0.41338,0.39277,0.24973,-0.30705,-0.41548,-0.4098,-0.44335,-0.45052,-0.44721,-0.45984,-0.42308,-0.42721,-0.46063,-0.47066,-0.45207,-0.43991,-0.44994,-0.4651,-0.43482,-0.45099,-0.46937,-0.47681,-0.47163,-0.46878,-0.46265,-0.47949,-0.48667,-0.50002,-0.49387,-0.50472,-0.48881,-0.47567,-0.5005,-0.51514,-0.49824,-0.49534,-0.51081,-0.50891,-0.51185,-0.5153,-0.52298,-0.53246,-0.5216,-0.51328,-0.52061,-0.53139,-0.52314,-0.52395,-0.53073,-0.53326,-0.55843,-0.54087,-0.53469,-0.5593,-0.5549,-0.54314,-0.54871,-0.55372,-0.56084,-0.55933,-0.55543,-0.5588,-0.56537,-0.55943,-0.55125,-0.57814,-0.57106,-0.56286,-0.55743,-0.5597,-0.56409,-0.57661,-0.56979,-0.58492,-0.58649,-0.58095,-0.58265,-0.58852,-0.58769,-0.57908,-0.56809,-0.58557,-0.60286,-0.59097,-0.59507,-0.59502,-0.59579,-0.5917,-0.6023,-0.59732,-0.59067,-0.6,-0.60472,-0.60341,-0.60546,-0.61618,-0.61268,-0.61423,-0.61477,-0.62594,-0.62114,-0.60813,-0.61725,-0.62149,-0.61211,-0.61942,-0.61923,-0.62281,-0.62227,-0.63261,-0.61929,-0.62198,-0.6246,-0.61823,-0.6327,-0.63465,-0.62977,-0.63419,-0.63891,-0.63383,-0.62821,-0.63119,-0.63816,-0.64126,-0.63804,-0.64549,-0.64367,-0.63735,-0.63908,-0.64394,-0.65077
0.63943,0.63814,0.63913,0.63082,0.63183,0.62703,0.6296,0.6307,0.62248,0.62645,0.62728,0.62301,0.622,0.62282,0.62762,0.62193,0.61638,0.62405,0.62365,0.62077,0.61403,0.60979,0.61765,0.61343,0.60844,0.60932,0.61033,0.60852,0.60778,0.61339,0.60554,0.60586,0.60565,0.60248,0.60169,0.6008,0.60548,0.60033,0.59154,0.59606,0.5907,0.59346,0.59324,0.57918,0.58589,0.58705,0.58069,0.58341,0.58575,0.58571,0.58521,0.5747,0.57627,0.57069,0.57144,0.55684,0.57028,0.56432,0.55653,0.55795,0.5605,0.55801,0.5715,0.57319,0.55877,0.55896,0.55978,0.54748,0.5287,0.53857,0.54079,0.53688,0.55713,0.54692,0.53991,0.53393,0.53509,0.53582,0.5145,0.52167,0.51159,0.5265,0.51744,0.51629,0.52784,0.52598,0.52197,0.51203,0.50924,0.50248,0.48352,0.47518,0.49086,0.49683,0.50532,0.50834,0.49645,0.49294,0.47083,0.48506,0.48019,0.47623,0.4941,0.49129,0.47055,0.4542,0.47546,0.4555,0.45657,0.46984,0.46333,0.43603,0.43342,0.43601,0.46653,0.44449,0.42315,0.44526,0.44729,0.42435,0.42548,0.40972,0.41353,0.40922,0.38358,0.37773,0.37914,0.26235,-0.28895,-0.42856,-0.40635,-0.46182,-0.44045,-0.44144,-0.46436,-0.42381,-0.43208,-0.45392,-0.46309,-0.44872,-0.4513,-0.46572,-0.47814,-0.44953,-0.43666,-0.45791,-0.45289,-0.46032,-0.44913,-0.46295,-0.46966,-0.47163,-0.48317,-0.48284,-0.49227,-0.50167,-0.50094,-0.49567,-0.50579,-0.47963,-0.48903,-0.51599,-0.51188,-0.48256,-0.50344,-0.51679,-0.52292,-0.50564,-0.50453,-0.53037,-0.52217,-0.53147,-0.53432,-0.53842,-0.53863,-0.54181,-0.54349,-0.55432,-0.55998,-0.55743,-0.54743,-0.5441,-0.56423,-0.54393,-0.54401,-0.54283,-0.56623,-0.56762,-0.56354,-0.55257,-0.5641,-0.5835,-0.57575,-0.57314,-0.5756,-0.57449,-0.57541,-0.5716,-0.57936,-0.57525,-0.57917,-0.58298,-0.57699,-0.59049,-0.59396,-0.59152,-0.58775,-0.58336,-0.58659,-0.59476,-0.58945,-0.5936,-0.59263,-0.60568,-0.60824,-0.60555,-0.59814,-0.60338,-0.60337,-0.60768,-0.61181,-0.60958,-0.6096,-0.61794,-0.61888,-0.6174,-0.61575,-0.61132,-0.60908,-0.62024,-0.62383,-0.62221,-0.62692,-0.62875,-0.63427,-0.62887,-0.62639,-0.6316,-0.6339,-0.62495,-0.62751,-0.62718,-0.64295,-0.63768,-0.62819,-0.63729,-0.63601,-0.63416,-0.63962,-0.64565,-0.64762,-0.64147,-0.64348,-0.64706,-0.64927,-0.65008
0.63244,0.62706,0.62794,0.63291,0.63559,0.63151,0.62883,0.62848,0.62502,0.62994,0.62133,0.61955,0.62007,0.62331,0.62369,0.62682,0.62457,0.62466,0.62108,0.62022,0.62121,0.61746,0.61418,0.61354,0.62013,0.60596,0.60611,0.61083,0.60692,0.60479,0.60616,0.60388,0.61097,0.60812,0.60345,0.60449,0.60167,0.59785,0.59665,0.60152,0.59291,0.59533,0.59921,0.59016,0.58197,0.58273,0.58574,0.5877,0.58148,0.58519,0.57033,0.57351,0.57549,0.57587,0.56551,0.55973,0.57972,0.56836,0.55846,0.57072,0.56679,0.56358,0.56681,0.55247,0.55484,0.55289,0.54831,0.54233,0.55018,0.55227,0.54265,0.53133,0.54088,0.53979,0.54497,0.52791,0.53342,0.53197,0.52469,0.54171,0.53179,0.51874,0.51357,0.52404,0.50559,0.51083,0.52234,0.5181,0.51393,0.4988,0.48474,0.48903,0.48796,0.48982,0.49324,0.4801,0.47956,0.47948,0.49074,0.49558,0.48786,0.48359,0.47913,0.47774,0.46442,0.48232,0.47293,0.46155,0.46474,0.47414,0.47059,0.44464,0.43639,0.43825,0.45274,0.45377,0.43555,0.42952,0.43753,0.42863,0.41339,0.42632,0.44768,0.40373,0.39851,0.40111,0.40674,0.26685,-0.33627,-0.41925,-0.39312,-0.41764,-0.4312,-0.42061,-0.42298,-0.42578,-0.44877,-0.44627,-0.43548,-0.42802,-0.4496,-0.48379,-0.48301,-0.45801,-0.46676,-0.46251,-0.44659,-0.44504,-0.44616,-0.4445,-0.4664,-0.47352,-0.46924,-0.49714,-0.47888,-0.49909,-0.48165,-0.46434,-0.49137,-0.51677,-0.50605,-0.49961,-0.50866,-0.47649,-0.50222,-0.50494,-0.50492,-0.51075,-0.52919,-0.51619,-0.51239,-0.51046,-0.51981,-0.53236,-0.54993,-0.53938,-0.54074,-0.54112,-0.52645,-0.53977,-0.54473,-0.55758,-0.56642,-0.54916,-0.55146,-0.5563,-0.55482,-0.55241,-0.55835,-0.55257,-0.55591,-0.58056,-0.57469,-0.57201,-0.57001,-0.58466,-0.58451,-0.58284,-0.56845,-0.57576,-0.58458,-0.58541,-0.57785,-0.58838,-0.59429,-0.59963,-0.59034,-0.57654,-0.58585,-0.59704,-0.59975,-0.5991,-0.58881,-0.60471,-0.60497,-0.59854,-0.60405,-0.61075,-0.60984,-0.60674,-0.60226,-0.60867,-0.6032,-0.6166,-0.61222,-0.61166,-0.62062,-0.6194,-0.62821,-0.62364,-0.62606,-0.63307,-0.62406,-0.62781,-0.6336,-0.63124,-0.6284,-0.63384,-0.63706,-0.62924,-0.63175,-0.63659,-0.64658,-0.63232,-0.63679,-0.64476,-0.63559,-0.63326,-0.63964,-0.63783,-0.636,-0.64631,-0.64445,-0.64844,-0.64651,-0.64856
0.63135,0.63013,0.63192,0.62986,0.63651,0.63405,0.6296,0.63043,0.6282,0.62998,0.62238,0.62453,0.62868,0.62063,0.61851,0.62495,0.61806,0.61597,0.61889,0.6224,0.61642,0.60624,0.61235,0.61185,0.61364,0.61167,0.60687,0.60781,0.59148,0.6017,0.60202,0.59681,0.60191,0.6027,0.60433,0.5928,0.59403,0.58727,0.58481,0.59744,0.59288,0.59298,0.59332,0.59327,0.58694,0.57871,0.58422,0.58688,0.58228,0.57393,0.57789,0.57983,0.57152,0.56871,0.56713,0.57663,0.57814,0.5715,0.56518,0.55865,0.55873,0.56677,0.5656,0.55088,0.55533,0.56058,0.55616,0.55343,0.55898,0.55577,0.54701,0.53687,0.54922,0.53909,0.5475,0.53537,0.53436,0.52522,0.50314,0.53073,0.53968,0.52259,0.51668,0.51964,0.4997,0.50153,0.52422,0.51696,0.52059,0.5125,0.50351,0.51358,0.50354,0.49918,0.49538,0.48497,0.48548,0.47875,0.49015,0.48811,0.48111,0.47221,0.46782,0.46839,0.47216,0.46208,0.4651,0.44403,0.45845,0.47082,0.45222,0.46947,0.46053,0.40485,0.42554,0.46906,0.45781,0.43775,0.45471,0.44917,0.43613,0.4298,0.43054,0.42231,0.42245,0.42824,0.41488,0.26339,-0.30524,-0.41096,-0.39907,-0.41581,-0.43814,-0.41456,-0.40669,-0.43534,-0.45042,-0.44533,-0.44414,-0.42369,-0.43709,-0.47062,-0.44035,-0.43784,-0.47225,-0.46632,-0.46453,-0.48333,-0.47126,-0.45235,-0.46291,-0.47514,-0.49089,-0.48953,-0.49112,-0.48631,-0.46966,-0.46785,-0.50829,-0.53159,-0.51472,-0.48815,-0.49902,-0.51152,-0.49762,-0.50847,-0.52085,-0.50868,-0.51245,-0.51823,-0.5001,-0.51868,-0.52545,-0.51759,-0.53103,-0.54385,-0.53053,-0.51446,-0.54142,-0.55125,-0.55519,-0.54038,-0.53951,-0.54907,-0.564,-0.56851,-0.56826,-0.54772,-0.55207,-0.55417,-0.56647,-0.56497,-0.56305,-0.55951,-0.55725,-0.57741,-0.56403,-0.58368,-0.58283,-0.57984,-0.5902,-0.58646,-0.58331,-0.5871,-0.59576,-0.57994,-0.58012,-0.58941,-0.59726,-0.59527,-0.60305,-0.60922,-0.60612,-0.59953,-0.59709,-0.60576,-0.61002,-0.60557,-0.59792,-0.6028,-0.60954,-0.61139,-0.60713,-0.60564,-0.61259,-0.61793,-0.61434,-0.61714,-0.6297,-0.63051,-0.62418,-0.6299,-0.62368,-0.62739,-0.63361,-0.62751,-0.63095,-0.63122,-0.63153,-0.6301,-0.6309,-0.63564,-0.641,-0.63622,-0.64057,-0.64074,-0.635,-0.63673,-0.64289,-0.63578,-0.63858,-0.64666,-0.64824,-0.65148,-0.65191,-0.6401
0.63761,0.63354,0.63404,0.62436,0.63169,0.62837,0.62442,0.62855,0.62584,0.62769,0.63008,0.62789,0.63232,0.62998,0.61933,0.62266,0.62119,0.61878,0.61396,0.62068,0.6142,0.60041,0.61245,0.61191,0.61189,0.6067,0.60662,0.60667,0.6016,0.60767,0.60941,0.61324,0.60582,0.59701,0.59984,0.59082,0.5995,0.59519,0.57958,0.59496,0.59027,0.58989,0.58985,0.58548,0.58732,0.58229,0.58466,0.58265,0.58177,0.58095,0.58427,0.58366,0.58243,0.56949,0.56543,0.5723,0.58002,0.57152,0.56143,0.55902,0.55876,0.55924,0.566,0.55813,0.55182,0.5505,0.54476,0.54857,0.55584,0.55074,0.53514,0.54576,0.564,0.54205,0.52123,0.52396,0.53547,0.52835,0.51632,0.52785,0.52787,0.51322,0.50927,0.52176,0.51722,0.51485,0.50986,0.49994,0.50643,0.50287,0.4995,0.49981,0.50625,0.509,0.49359,0.48631,0.49451,0.49898,0.49858,0.47533,0.46552,0.4777,0.48867,0.47196,0.46342,0.46753,0.46452,0.46331,0.45002,0.45709,0.44216,0.43863,0.4435,0.4357,0.44942,0.43817,0.43581,0.42584,0.45227,0.43727,0.43663,0.42863,0.42816,0.41758,0.41557,0.41345,0.41851,0.30771,-0.29468,-0.42705,-0.44064,-0.43471,-0.42685,-0.44232,-0.44062,-0.43231,-0.44236,-0.4617,-0.42818,-0.43373,-0.45834,-0.46528,-0.46073,-0.468,-0.48296,-0.46127,-0.46658,-0.48379,-0.48362,-0.48973,-0.48902,-0.49118,-0.50077,-0.4789,-0.48348,-0.49223,-0.50072,-0.50508,-0.50221,-0.4981,-0.50501,-0.50262,-0.49616,-0.51919,-0.50916,-0.51027,-0.52345,-0.52041,-0.52784,-0.51809,-0.51366,-0.5163,-0.54133,-0.52325,-0.51437,-0.53178,-0.52766,-0.52562,-0.55192,-0.53713,-0.53858,-0.53498,-0.53839,-0.52463,-0.54228,-0.56292,-0.57269,-0.55383,-0.55078,-0.55865,-0.56312,-0.55595,-0.56351,-0.56671,-0.57634,-0.57265,-0.56003,-0.58672,-0.58743,-0.58036,-0.58749,-0.57893,-0.58812,-0.5781,-0.58782,-0.5836,-0.57396,-0.58098,-0.5919,-0.59501,-0.59219,-0.60007,-0.6055,-0.59774,-0.59821,-0.61917,-0.61293,-0.60299,-0.60916,-0.60577,-0.61818,-0.6092,-0.60529,-0.60186,-0.60166,-0.61,-0.61528,-0.62006,-0.62626,-0.62673,-0.62163,-0.62955,-0.62219,-0.62609,-0.62639,-0.63389,-0.63048,-0.63284,-0.63208,-0.6286,-0.6364,-0.63685,-0.636,-0.63895,-0.63709,-0.64089,-0.63477,-0.63702,-0.64277,-0.63816,-0.63999,-0.64453,-0.64249,-0.6399,-0.64819,-0.63929
0.6369,0.63423,0.63589,0.63423,0.63306,0.63287,0.62791,0.62715,0.62458,0.62781,0.62568,0.62179,0.62274,0.62108,0.62389,0.62965,0.62384,0.61764,0.61086,0.61433,0.61587,0.607,0.61141,0.61201,0.61759,0.61364,0.61071,0.60895,0.60302,0.60578,0.6084,0.60687,0.60588,0.60061,0.59804,0.595,0.60084,0.59916,0.59194,0.59714,0.58553,0.59218,0.58238,0.58898,0.59834,0.57996,0.5823,0.57865,0.58984,0.59566,0.58023,0.57865,0.58202,0.57781,0.57311,0.56951,0.57112,0.56754,0.56994,0.56629,0.56011,0.56594,0.56752,0.55288,0.5532,0.5577,0.54531,0.55067,0.54505,0.54908,0.54854,0.54987,0.53916,0.54942,0.53532,0.52507,0.52558,0.55235,0.52619,0.52656,0.52026,0.5249,0.52279,0.52084,0.51148,0.52368,0.50924,0.5171,0.51405,0.50738,0.48772,0.49442,0.50134,0.4956,0.4832,0.47568,0.48217,0.49002,0.48354,0.46359,0.47049,0.47897,0.4759,0.47176,0.46202,0.47082,0.48223,0.46838,0.47071,0.46537,0.45716,0.43984,0.4443,0.45503,0.44939,0.427,0.43329,0.43551,0.44375,0.43018,0.42723,0.42242,0.42078,0.41535,0.40496,0.40218,0.40053,0.27058,-0.3361,-0.45045,-0.43057,-0.42876,-0.43383,-0.43611,-0.44155,-0.44609,-0.45001,-0.46616,-0.45606,-0.43444,-0.43215,-0.44712,-0.44688,-0.4581,-0.47789,-0.45409,-0.45914,-0.46951,-0.47828,-0.48425,-0.46712,-0.48163,-0.46062,-0.4723,-0.48376,-0.51194,-0.51168,-0.51085,-0.50527,-0.51499,-0.52618,-0.51435,-0.49943,-0.50399,-0.52921,-0.52001,-0.51643,-0.52093,-0.52361,-0.51795,-0.51591,-0.51199,-0.50466,-0.51535,-0.52415,-0.5306,-0.53331,-0.54625,-0.56306,-0.54494,-0.53493,-0.52914,-0.53419,-0.53659,-0.55153,-0.55409,-0.5425,-0.55846,-0.55674,-0.55416,-0.56246,-0.55769,-0.56502,-0.56128,-0.57538,-0.58693,-0.56595,-0.571,-0.57749,-0.57998,-0.58127,-0.5831,-0.58091,-0.57558,-0.58512,-0.58645,-0.57935,-0.58281,-0.59356,-0.59343,-0.59867,-0.60353,-0.60305,-0.59696,-0.59808,-0.61259,-0.59772,-0.61,-0.61832,-0.61042,-0.61085,-0.59807,-0.61083,-0.61493,-0.61206,-0.60982,-0.61986,-0.61891,-0.61749,-0.61655,-0.61935,-0.62468,-0.61627,-0.62412,-0.63028,-0.6323,-0.63122,-0.63148,-0.63188,-0.62971,-0.63689,-0.62856,-0.62387,-0.62874,-0.64154,-0.64031,-0.63653,-0.63892,-0.64278,-0.64054,-0.64145,-0.64038,-0.63858,-0.63869,-0.64604,-0.64667
0.63104,0.63401,0.63736,0.635,0.63298,0.62824,0.62593,0.62907,0.6242,0.63042,0.62829,0.62518,0.62281,0.62508,0.62684,0.63265,0.6223,0.61662,0.61329,0.61654,0.61912,0.61546,0.61354,0.61812,0.61292,0.60952,0.60618,0.60632,0.6049,0.59415,0.60232,0.60628,0.60446,0.5963,0.59512,0.59999,0.59695,0.59772,0.59626,0.58762,0.58792,0.59325,0.59449,0.59442,0.5917,0.58313,0.58113,0.5771,0.57708,0.58602,0.5711,0.57978,0.57269,0.56674,0.56551,0.56991,0.57698,0.56876,0.57186,0.575,0.5648,0.56206,0.55305,0.56874,0.57142,0.56326,0.548,0.54656,0.5449,0.55497,0.55629,0.53708,0.52326,0.53759,0.53432,0.5302,0.52596,0.52994,0.53102,0.53078,0.52014,0.52534,0.51934,0.51677,0.50634,0.52016,0.52361,0.52189,0.5172,0.49774,0.49307,0.49165,0.49372,0.4923,0.48711,0.4863,0.47938,0.47329,0.47397,0.48848,0.49026,0.49211,0.48403,0.47492,0.45024,0.47147,0.46594,0.46043,0.46181,0.46023,0.45605,0.45515,0.45689,0.45099,0.45,0.4472,0.42915,0.41916,0.44023,0.42377,0.40602,0.41181,0.41051,0.40748,0.40074,0.43731,0.41866,0.27434,-0.30556,-0.40787,-0.42115,-0.45324,-0.42744,-0.4399,-0.44879,-0.44152,-0.45175,-0.45189,-0.46928,-0.46585,-0.45859,-0.44453,-0.44625,-0.44427,-0.45635,-0.45464,-0.46123,-0.46248,-0.4633,-0.48217,-0.46967,-0.48106,-0.48315,-0.48301,-0.48164,-0.51304,-0.50955,-0.47412,-0.47169,-0.51646,-0.52028,-0.50041,-0.50481,-0.53739,-0.52133,-0.52338,-0.5141,-0.51408,-0.52857,-0.53003,-0.51577,-0.51954,-0.51992,-0.51606,-0.5251,-0.53383,-0.54664,-0.54878,-0.56043,-0.56023,-0.54372,-0.55641,-0.5485,-0.55121,-0.54901,-0.55914,-0.55668,-0.54919,-0.5674,-0.5702,-0.57565,-0.57205,-0.58021,-0.57662,-0.56982,-0.56876,-0.55922,-0.55955,-0.57817,-0.57585,-0.58909,-0.59036,-0.58207,-0.58352,-0.59148,-0.59528,-0.60058,-0.59083,-0.57432,-0.58482,-0.59232,-0.60401,-0.61007,-0.5964,-0.59904,-0.59434,-0.58368,-0.60439,-0.61276,-0.61945,-0.60663,-0.60974,-0.61625,-0.60902,-0.60945,-0.61114,-0.61777,-0.61563,-0.62132,-0.61059,-0.61342,-0.62029,-0.61904,-0.62386,-0.62964,-0.62709,-0.62715,-0.62744,-0.63367,-0.6363,-0.6351,-0.63359,-0.63365,-0.64523,-0.63495,-0.6315,-0.63936,-0.63926,-0.63909,-0.63734,-0.64703,-0.63947,-0.63635,-0.64294,-0.64665,-0.64603
0.63478,0.63319,0.63096,0.63127,0.63269,0.63691,0.63313,0.62885,0.62633,0.6247,0.62941,0.63435,0.62608,0.62602,0.61458,0.61703,0.61882,0.61882,0.61812,0.61135,0.61311,0.61724,0.61459,0.61046,0.6101,0.60562,0.60256,0.6044,0.60536,0.60212,0.60685,0.60451,0.60192,0.59688,0.59122,0.59615,0.59973,0.60012,0.59575,0.58952,0.58869,0.58625,0.59547,0.58822,0.58552,0.58387,0.58687,0.57669,0.56791,0.57066,0.57232,0.58279,0.57068,0.55977,0.5727,0.57429,0.56993,0.55738,0.56395,0.57911,0.564,0.55918,0.55188,0.56758,0.55451,0.55368,0.54913,0.54476,0.54397,0.54913,0.5491,0.53863,0.52841,0.53536,0.53456,0.53762,0.53087,0.52053,0.52813,0.52849,0.51272,0.50954,0.49932,0.516,0.51187,0.49295,0.49995,0.50922,0.52021,0.50561,0.51152,0.50392,0.51281,0.5109,0.49872,0.486,0.48465,0.48024,0.48866,0.48292,0.4906,0.4805,0.4622,0.45708,0.47984,0.4668,0.45761,0.4596,0.47646,0.46097,0.43789,0.46791,0.45418,0.43756,0.43829,0.44135,0.44451,0.42671,0.43657,0.4303,0.40885,0.4162,0.40903,0.40581,0.39627,0.41634,0.42009,0.27581,-0.32635,-0.40849,-0.42841,-0.45029,-0.42807,-0.43133,-0.45611,-0.43526,-0.42806,-0.4412,-0.41817,-0.44105,-0.48701,-0.46142,-0.44763,-0.42704,-0.44237,-0.45365,-0.4563,-0.46704,-0.46211,-0.46052,-0.47829,-0.45825,-0.45948,-0.48558,-0.46328,-0.47839,-0.48716,-0.48405,-0.48465,-0.50188,-0.51267,-0.50736,-0.50426,-0.52619,-0.51488,-0.5095,-0.5217,-0.52295,-0.52583,-0.51438,-0.51016,-0.53245,-0.54901,-0.53951,-0.53408,-0.53549,-0.54096,-0.55886,-0.54965,-0.55159,-0.55569,-0.56407,-0.55692,-0.54943,-0.55413,-0.55992,-0.54593,-0.54157,-0.55883,-0.57221,-0.56088,-0.55499,-0.56173,-0.57282,-0.57332,-0.5634,-0.57429,-0.57891,-0.59004,-0.57959,-0.57965,-0.58982,-0.59295,-0.58898,-0.58022,-0.57865,-0.59951,-0.59606,-0.58058,-0.58993,-0.60015,-0.59586,-0.59695,-0.60027,-0.59111,-0.59984,-0.60616,-0.59825,-0.60093,-0.60839,-0.60413,-0.62003,-0.60998,-0.61094,-0.61425,-0.61251,-0.6189,-0.61768,-0.61566,-0.61249,-0.61396,-0.62161,-0.62144,-0.63108,-0.62929,-0.62422,-0.63113,-0.62961,-0.63251,-0.62214,-0.63122,-0.632,-0.63319,-0.63326,-0.63185,-0.63199,-0.63835,-0.63802,-0.64022,-0.6349,-0.63804,-0.63035,-0.63878,-0.63826,-0.64213,-0.64828
0.6304,0.63206,0.63369,0.62853,0.62772,0.63276,0.63543,0.63284,0.62953,0.62812,0.63429,0.63057,0.61848,0.61915,0.61651,0.62314,0.61889,0.61468,0.61949,0.61461,0.61133,0.61397,0.61077,0.61277,0.61507,0.60703,0.59776,0.60497,0.60649,0.60875,0.61364,0.60223,0.59328,0.59477,0.59518,0.59007,0.59928,0.59761,0.5976,0.59939,0.58831,0.58279,0.59172,0.58737,0.59279,0.59428,0.58615,0.57509,0.58183,0.58243,0.58748,0.58236,0.57192,0.5739,0.58126,0.56751,0.56834,0.56757,0.56034,0.56561,0.56523,0.56285,0.56603,0.55758,0.5487,0.55259,0.55218,0.55294,0.54351,0.5412,0.54622,0.54348,0.53591,0.5367,0.53028,0.54934,0.53756,0.52956,0.53003,0.52218,0.52402,0.51521,0.52217,0.53416,0.51448,0.50066,0.49378,0.51747,0.51808,0.49804,0.49536,0.49457,0.49542,0.49733,0.47904,0.47596,0.48516,0.47907,0.48578,0.48056,0.48462,0.46661,0.47269,0.46954,0.48056,0.48096,0.46206,0.45199,0.4627,0.45973,0.45243,0.45906,0.46172,0.45115,0.42567,0.43188,0.42451,0.43215,0.43952,0.41656,0.42394,0.44844,0.41713,0.41466,0.42118,0.41202,0.40968,0.30564,-0.31803,-0.41186,-0.44746,-0.45429,-0.4242,-0.39917,-0.41415,-0.38675,-0.40286,-0.44273,-0.41927,-0.4349,-0.46538,-0.45239,-0.44235,-0.4626,-0.45492,-0.46179,-0.45164,-0.4636,-0.46443,-0.46266,-0.49504,-0.47745,-0.48877,-0.52553,-0.48059,-0.48724,-0.4976,-0.51773,-0.48838,-0.48801,-0.48146,-0.5194,-0.51506,-0.52401,-0.51884,-0.51554,-0.53071,-0.53346,-0.51184,-0.51723,-0.53062,-0.53297,-0.53953,-0.53164,-0.51578,-0.54623,-0.54563,-0.52849,-0.53194,-0.53993,-0.52694,-0.5431,-0.53961,-0.54482,-0.5304,-0.54447,-0.54607,-0.55272,-0.55796,-0.56536,-0.55448,-0.54626,-0.55871,-0.56079,-0.57049,-0.58102,-0.57286,-0.57669,-0.5878,-0.58206,-0.57319,-0.57529,-0.59406,-0.58264,-0.57478,-0.58463,-0.59431,-0.59313,-0.5926,-0.60364,-0.60117,-0.58839,-0.58802,-0.60102,-0.5998,-0.60091,-0.61181,-0.59729,-0.60522,-0.60619,-0.61155,-0.61486,-0.60736,-0.60959,-0.61763,-0.6243,-0.618,-0.61524,-0.61451,-0.61955,-0.60777,-0.61062,-0.63035,-0.63468,-0.63227,-0.62739,-0.62776,-0.63143,-0.62945,-0.618,-0.62421,-0.62718,-0.63088,-0.62983,-0.63313,-0.63529,-0.63782,-0.63515,-0.63512,-0.62821,-0.63365,-0.63836,-0.64199,-0.64072,-0.63581,-0.64104
0.63414,0.62877,0.63187,0.63306,0.62915,0.63402,0.63593,0.62867,0.62584,0.6219,0.624,0.62256,0.62372,0.62434,0.62152,0.62464,0.62167,0.61743,0.61975,0.61472,0.61716,0.61292,0.6064,0.61784,0.61639,0.60547,0.60514,0.61103,0.60895,0.6084,0.61602,0.60823,0.59981,0.59867,0.60057,0.59434,0.60447,0.60364,0.59428,0.59548,0.5862,0.5876,0.5899,0.58626,0.58698,0.59044,0.58151,0.57715,0.57552,0.57985,0.57858,0.56506,0.57352,0.57665,0.56874,0.55975,0.57229,0.56914,0.56309,0.5596,0.56441,0.56758,0.57042,0.55928,0.56293,0.55575,0.54307,0.55579,0.55412,0.54402,0.54226,0.54568,0.53949,0.54159,0.54107,0.53941,0.52468,0.52677,0.5237,0.52646,0.53562,0.50983,0.52155,0.51942,0.50611,0.51684,0.51927,0.50669,0.50356,0.4915,0.49774,0.49022,0.49102,0.50332,0.48492,0.48075,0.50471,0.49546,0.48167,0.47533,0.47826,0.48112,0.48645,0.47216,0.46354,0.49417,0.47389,0.47327,0.44533,0.46383,0.47275,0.43212,0.41852,0.427,0.42995,0.43851,0.43963,0.4318,0.41602,0.41332,0.42727,0.45303,0.44377,0.45117,0.41183,0.40044,0.38427,0.29181,-0.28817,-0.43455,-0.44802,-0.42841,-0.42402,-0.42959,-0.4376,-0.43767,-0.44259,-0.44753,-0.45423,-0.45844,-0.4464,-0.46652,-0.43826,-0.46707,-0.4633,-0.45159,-0.43046,-0.45614,-0.46587,-0.46041,-0.4668,-0.49551,-0.49147,-0.5085,-0.48045,-0.478,-0.48729,-0.51248,-0.49258,-0.49752,-0.50516,-0.51077,-0.49085,-0.5054,-0.51385,-0.51951,-0.52102,-0.53116,-0.52138,-0.52969,-0.52658,-0.53835,-0.52912,-0.51995,-0.52438,-0.54119,-0.53896,-0.52457,-0.54349,-0.5303,-0.52968,-0.53532,-0.556,-0.54849,-0.54725,-0.55942,-0.55114,-0.55012,-0.548,-0.54116,-0.55415,-0.56436,-0.5799,-0.57467,-0.57859,-0.56988,-0.55938,-0.57556,-0.58329,-0.58853,-0.58064,-0.58242,-0.59013,-0.58588,-0.58764,-0.5838,-0.58992,-0.59175,-0.58811,-0.59125,-0.59553,-0.60104,-0.59581,-0.60827,-0.61285,-0.60064,-0.61184,-0.60892,-0.60422,-0.60524,-0.61843,-0.61735,-0.61378,-0.60941,-0.62129,-0.6167,-0.6098,-0.61798,-0.62885,-0.61634,-0.61994,-0.61233,-0.62235,-0.62784,-0.62958,-0.63232,-0.61816,-0.62198,-0.63436,-0.62506,-0.62769,-0.63174,-0.63635,-0.63211,-0.63873,-0.63274,-0.63969,-0.6438,-0.63865,-0.63795,-0.64328,-0.64522,-0.64298,-0.64442,-0.64052,-0.64149
0.63716,0.63259,0.63281,0.63318,0.62695,0.63487,0.62629,0.62567,0.62331,0.62261,0.62013,0.61914,0.62732,0.62922,0.61956,0.62284,0.61617,0.6232,0.62214,0.61941,0.61618,0.61183,0.6138,0.61261,0.61036,0.60402,0.59499,0.60918,0.61206,0.60851,0.5992,0.59533,0.59863,0.59486,0.59782,0.59805,0.60335,0.6007,0.58992,0.59892,0.59256,0.58521,0.58158,0.57955,0.58854,0.59272,0.58069,0.57953,0.57393,0.57592,0.58826,0.57152,0.57271,0.57463,0.56754,0.56022,0.57652,0.56557,0.55777,0.56239,0.5568,0.55799,0.56286,0.55167,0.55537,0.55857,0.54267,0.55867,0.55226,0.53909,0.54559,0.54434,0.54881,0.53572,0.53997,0.52648,0.5221,0.52427,0.53014,0.51369,0.53302,0.51678,0.52454,0.52902,0.52693,0.52977,0.52505,0.50415,0.50448,0.51371,0.51682,0.50516,0.49563,0.51267,0.49107,0.48516,0.51292,0.48951,0.47577,0.46725,0.47656,0.48697,0.47674,0.47597,0.45955,0.46901,0.48737,0.47923,0.44634,0.47006,0.47486,0.43998,0.42198,0.43046,0.46387,0.45424,0.44226,0.42965,0.42746,0.43192,0.40468,0.40159,0.42503,0.42491,0.42375,0.40077,0.40348,0.29556,-0.28735,-0.4138,-0.43702,-0.39131,-0.42291,-0.44557,-0.44829,-0.43946,-0.44497,-0.45967,-0.44245,-0.42861,-0.43386,-0.45443,-0.47603,-0.4659,-0.46302,-0.46135,-0.47079,-0.47845,-0.48922,-0.45611,-0.44787,-0.4957,-0.49585,-0.48398,-0.48024,-0.50229,-0.5025,-0.50316,-0.50198,-0.50461,-0.50842,-0.51098,-0.49299,-0.48918,-0.49244,-0.49782,-0.52307,-0.5159,-0.51494,-0.54256,-0.51227,-0.51973,-0.53296,-0.52502,-0.51116,-0.52121,-0.53406,-0.54869,-0.54714,-0.53541,-0.55395,-0.53363,-0.53373,-0.56525,-0.55412,-0.55944,-0.55742,-0.55645,-0.54166,-0.55347,-0.56446,-0.56719,-0.56067,-0.56533,-0.57748,-0.57168,-0.57026,-0.57811,-0.58472,-0.58642,-0.57344,-0.57541,-0.57819,-0.58321,-0.5955,-0.58629,-0.59276,-0.59283,-0.59642,-0.59185,-0.5929,-0.5944,-0.60142,-0.60459,-0.59659,-0.59954,-0.60001,-0.60412,-0.6187,-0.6128,-0.61258,-0.61802,-0.61712,-0.61355,-0.62483,-0.61461,-0.61257,-0.6158,-0.61341,-0.61266,-0.6179,-0.62064,-0.62531,-0.62205,-0.62223,-0.61682,-0.62648,-0.63004,-0.63558,-0.62492,-0.63296,-0.64045,-0.6363,-0.63512,-0.63569,-0.63244,-0.63533,-0.63721,-0.64026,-0.64989,-0.64597,-0.63672,-0.64504,-0.6486,-0.65264,-0.64232
0.63215,0.63736,0.63755,0.63427,0.62996,0.62956,0.62325,0.62979,0.62222,0.62338,0.62707,0.62625,0.6243,0.62458,0.619,0.61941,0.61232,0.61942,0.6219,0.62487,0.61661,0.61735,0.61004,0.6151,0.61635,0.60883,0.60499,0.60471,0.60896,0.61076,0.6022,0.60401,0.59368,0.59719,0.59964,0.60493,0.60462,0.58961,0.58401,0.59204,0.5907,0.58077,0.58351,0.5858,0.59345,0.58706,0.57755,0.57989,0.57947,0.57591,0.58138,0.58175,0.58476,0.58044,0.56871,0.56508,0.57267,0.56911,0.56952,0.56677,0.55511,0.55551,0.55962,0.55329,0.54509,0.55379,0.54166,0.55259,0.56143,0.53892,0.54103,0.54915,0.54193,0.5379,0.53404,0.5333,0.53182,0.5358,0.5447,0.50508,0.51602,0.50889,0.52603,0.52708,0.51155,0.51226,0.5155,0.49515,0.5,0.51115,0.50775,0.51204,0.49669,0.49502,0.49586,0.49725,0.49986,0.4889,0.47382,0.48745,0.48651,0.46889,0.46749,0.46702,0.46282,0.46115,0.46119,0.44818,0.44824,0.47502,0.46951,0.46062,0.43301,0.43744,0.46151,0.44846,0.43985,0.44183,0.43323,0.43028,0.44046,0.41953,0.41696,0.40982,0.41785,0.38867,0.42882,0.3144,-0.2921,-0.41848,-0.41008,-0.43704,-0.44309,-0.41781,-0.43195,-0.45869,-0.44541,-0.43449,-0.44481,-0.46709,-0.45076,-0.42769,-0.47037,-0.47049,-0.45729,-0.45464,-0.47657,-0.47291,-0.47992,-0.46843,-0.4688,-0.47538,-0.48846,-0.48363,-0.48622,-0.48614,-0.49451,-0.49444,-0.50333,-0.50578,-0.48986,-0.51088,-0.52219,-0.52189,-0.50452,-0.49574,-0.51564,-0.52065,-0.5183,-0.51731,-0.50951,-0.51727,-0.52226,-0.52395,-0.52352,-0.51981,-0.54329,-0.55257,-0.54893,-0.55248,-0.55072,-0.54088,-0.54131,-0.54705,-0.5435,-0.55295,-0.54534,-0.5638,-0.55143,-0.55628,-0.56182,-0.56559,-0.55012,-0.55419,-0.57073,-0.57937,-0.57902,-0.58144,-0.5707,-0.57256,-0.58285,-0.58482,-0.58576,-0.57772,-0.57897,-0.5822,-0.57881,-0.57681,-0.592,-0.59201,-0.59344,-0.59719,-0.60501,-0.59812,-0.58574,-0.60403,-0.61068,-0.60248,-0.60654,-0.6069,-0.60758,-0.61007,-0.62544,-0.61552,-0.62184,-0.61406,-0.61294,-0.61165,-0.61002,-0.61748,-0.61023,-0.61947,-0.61955,-0.62614,-0.61627,-0.61458,-0.63287,-0.63452,-0.63177,-0.62855,-0.63672,-0.63546,-0.62972,-0.63622,-0.63722,-0.63039,-0.63241,-0.62914,-0.6316,-0.64307,-0.63284,-0.63777,-0.64594,-0.65251,-0.65371,-0.64689
0.63306,0.63169,0.63988,0.63445,0.6368,0.63547,0.62809,0.62737,0.61977,0.62249,0.62715,0.62282,0.62385,0.62115,0.62079,0.62511,0.61795,0.61898,0.62073,0.623,0.6215,0.6185,0.6087,0.61476,0.61514,0.61629,0.60569,0.60627,0.6104,0.60381,0.59331,0.59834,0.59523,0.60135,0.60193,0.60264,0.59456,0.59067,0.59757,0.59873,0.59605,0.59335,0.58317,0.5831,0.58427,0.57875,0.57392,0.56783,0.57865,0.58022,0.57783,0.58018,0.5743,0.57349,0.57112,0.5623,0.57538,0.56953,0.57686,0.57572,0.5765,0.55479,0.56402,0.5506,0.54951,0.54832,0.54651,0.54246,0.5575,0.54455,0.54681,0.5529,0.54819,0.54174,0.53739,0.54182,0.5384,0.53361,0.53857,0.52369,0.53327,0.52107,0.52884,0.52111,0.51595,0.51453,0.50459,0.49451,0.51832,0.51602,0.50022,0.48608,0.489,0.48492,0.47898,0.479,0.48802,0.47941,0.48796,0.47652,0.47655,0.47639,0.48378,0.46515,0.47768,0.46268,0.44438,0.44574,0.4531,0.48163,0.46363,0.46567,0.43825,0.44009,0.43612,0.42759,0.43676,0.44177,0.4281,0.42378,0.41791,0.40429,0.40601,0.42497,0.40667,0.39983,0.41026,0.2791,-0.30825,-0.42135,-0.43297,-0.42362,-0.44474,-0.44091,-0.41762,-0.42956,-0.43966,-0.43586,-0.45725,-0.45912,-0.44169,-0.42856,-0.43446,-0.44901,-0.46855,-0.46505,-0.44776,-0.45922,-0.44932,-0.44518,-0.48518,-0.45878,-0.47185,-0.45899,-0.48069,-0.46744,-0.48307,-0.50519,-0.50948,-0.4954,-0.49463,-0.52407,-0.52352,-0.5279,-0.51071,-0.4967,-0.50694,-0.52704,-0.5409,-0.50439,-0.52062,-0.5155,-0.52129,-0.54114,-0.54115,-0.55381,-0.54376,-0.54016,-0.53768,-0.5484,-0.54602,-0.54531,-0.54613,-0.55045,-0.53874,-0.55276,-0.56607,-0.56699,-0.56788,-0.54994,-0.563,-0.57253,-0.56874,-0.57209,-0.55921,-0.56862,-0.57873,-0.59637,-0.57032,-0.56554,-0.5813,-0.58957,-0.58028,-0.58072,-0.56986,-0.58559,-0.59043,-0.58957,-0.58378,-0.58985,-0.59776,-0.60291,-0.59969,-0.59074,-0.59976,-0.59861,-0.61858,-0.60243,-0.60314,-0.60109,-0.60627,-0.61511,-0.61216,-0.61563,-0.62113,-0.61297,-0.61478,-0.61759,-0.60624,-0.61387,-0.62247,-0.62319,-0.61772,-0.62708,-0.62676,-0.62693,-0.62347,-0.63261,-0.63176,-0.63414,-0.62746,-0.62975,-0.62718,-0.63356,-0.63615,-0.63685,-0.63704,-0.63518,-0.63793,-0.63895,-0.64014,-0.63927,-0.63859,-0.64351,-0.64666,-0.64758
0.63064,0.62843,0.63876,0.63133,0.62878,0.63268,0.63024,0.62669,0.61943,0.62617,0.6282,0.62049,0.62294,0.62485,0.6246,0.62423,0.62355,0.62274,0.61655,0.61737,0.61512,0.61566,0.61057,0.61476,0.60941,0.60743,0.60502,0.60434,0.59892,0.60452,0.59881,0.60185,0.59213,0.59759,0.6004,0.60025,0.59315,0.58718,0.59802,0.60189,0.59937,0.59503,0.58118,0.58113,0.58657,0.57553,0.57473,0.57313,0.58369,0.58746,0.579,0.57312,0.5797,0.56994,0.56794,0.57305,0.56677,0.58072,0.57151,0.55798,0.55182,0.55471,0.55526,0.54879,0.56212,0.56367,0.55781,0.54845,0.53785,0.54947,0.54522,0.53918,0.54408,0.53809,0.52737,0.53424,0.54403,0.52208,0.52838,0.53228,0.53455,0.53624,0.53282,0.51949,0.50539,0.50628,0.50009,0.50893,0.50258,0.50655,0.49622,0.49163,0.49284,0.50066,0.48364,0.48237,0.48764,0.5022,0.48737,0.49143,0.47608,0.46263,0.45295,0.4554,0.48151,0.45518,0.4404,0.46137,0.46082,0.45776,0.44718,0.44863,0.46902,0.45067,0.41708,0.41633,0.422,0.44569,0.44131,0.42148,0.42882,0.40714,0.41909,0.42515,0.43404,0.42698,0.40583,0.26071,-0.29001,-0.37753,-0.42034,-0.40034,-0.41637,-0.44289,-0.43484,-0.42618,-0.43988,-0.47209,-0.48189,-0.42905,-0.44424,-0.47753,-0.46733,-0.44841,-0.48493,-0.45983,-0.44391,-0.47167,-0.48311,-0.45933,-0.48952,-0.47302,-0.48203,-0.45994,-0.47239,-0.50335,-0.51311,-0.51469,-0.50265,-0.49514,-0.50439,-0.5062,-0.50815,-0.52905,-0.51722,-0.51513,-0.52594,-0.52876,-0.51838,-0.51783,-0.53154,-0.5139,-0.51533,-0.53985,-0.54321,-0.54332,-0.54226,-0.51999,-0.53077,-0.52947,-0.54187,-0.54943,-0.55166,-0.56278,-0.55043,-0.56495,-0.57469,-0.57001,-0.56549,-0.56329,-0.55503,-0.55543,-0.56849,-0.568,-0.5559,-0.56708,-0.56708,-0.56629,-0.57475,-0.57376,-0.57982,-0.58713,-0.57671,-0.58758,-0.57528,-0.58726,-0.59235,-0.59407,-0.59397,-0.59299,-0.5976,-0.60543,-0.59381,-0.59287,-0.60127,-0.60495,-0.61532,-0.59484,-0.60501,-0.60952,-0.60595,-0.60526,-0.60489,-0.61798,-0.60806,-0.59806,-0.60959,-0.61634,-0.60754,-0.61319,-0.61841,-0.62608,-0.62738,-0.6233,-0.61993,-0.6251,-0.62114,-0.63055,-0.63138,-0.63329,-0.63691,-0.63242,-0.63808,-0.6369,-0.63324,-0.63686,-0.62926,-0.64504,-0.64442,-0.63722,-0.63047,-0.64199,-0.64048,-0.63877,-0.64203,-0.63798
0.63505,0.6331,0.62913,0.62895,0.62811,0.62824,0.6229,0.62446,0.62252,0.62494,0.62576,0.61941,0.61904,0.62274,0.62364,0.62153,0.61528,0.61927,0.61852,0.61662,0.60947,0.61486,0.61442,0.60787,0.61436,0.61396,0.60581,0.59859,0.60204,0.60849,0.60495,0.5995,0.59399,0.60223,0.59697,0.59235,0.59879,0.59233,0.58802,0.5879,0.58823,0.58513,0.57994,0.58352,0.58508,0.58352,0.58456,0.58495,0.58292,0.58432,0.58209,0.56706,0.56083,0.56059,0.56874,0.56755,0.56475,0.56158,0.55799,0.55791,0.54769,0.55879,0.55886,0.55779,0.55731,0.55414,0.55192,0.55227,0.54706,0.54992,0.55039,0.53239,0.53875,0.5444,0.53849,0.53959,0.52924,0.5232,0.53531,0.52053,0.52208,0.5267,0.52881,0.5215,0.5151,0.51448,0.49261,0.4972,0.51496,0.50549,0.50469,0.50446,0.5011,0.49062,0.48409,0.50514,0.49197,0.4767,0.47552,0.47939,0.47706,0.48655,0.47231,0.46885,0.45545,0.47165,0.47862,0.47466,0.44216,0.45388,0.45601,0.44448,0.44054,0.45783,0.43644,0.43278,0.4442,0.4616,0.46301,0.452,0.42969,0.42342,0.42533,0.42541,0.41152,0.40598,0.39384,0.27806,-0.29399,-0.42896,-0.4286,-0.4213,-0.44594,-0.4368,-0.43184,-0.45395,-0.43453,-0.44141,-0.46104,-0.43716,-0.44986,-0.46862,-0.48556,-0.47276,-0.46588,-0.4636,-0.4695,-0.46702,-0.47349,-0.47702,-0.47018,-0.47417,-0.48838,-0.4617,-0.48904,-0.50543,-0.49649,-0.50564,-0.48521,-0.50799,-0.50649,-0.51886,-0.51462,-0.50972,-0.51813,-0.51288,-0.5158,-0.51896,-0.51008,-0.53888,-0.53779,-0.53101,-0.52083,-0.53056,-0.55305,-0.54877,-0.52634,-0.5316,-0.55254,-0.54602,-0.54806,-0.54478,-0.54023,-0.5495,-0.5631,-0.55475,-0.54837,-0.56593,-0.55953,-0.55858,-0.55838,-0.55127,-0.5655,-0.56627,-0.55791,-0.564,-0.57643,-0.57128,-0.5813,-0.57689,-0.58196,-0.57986,-0.58433,-0.59383,-0.57627,-0.58452,-0.5941,-0.5973,-0.59212,-0.58414,-0.59968,-0.59702,-0.59485,-0.6006,-0.59827,-0.60464,-0.60115,-0.60449,-0.6039,-0.61345,-0.61192,-0.61263,-0.6041,-0.61114,-0.61228,-0.61517,-0.61813,-0.62253,-0.61882,-0.60985,-0.62287,-0.63375,-0.63222,-0.62901,-0.62018,-0.62604,-0.62818,-0.63218,-0.6285,-0.6282,-0.62863,-0.63315,-0.64308,-0.64005,-0.64449,-0.64675,-0.63611,-0.63822,-0.64058,-0.63589,-0.63448,-0.63741,-0.64363,-0.64738,-0.64856,-0.64721
0.63691,0.63345,0.6311,0.63096,0.63124,0.62756,0.62045,0.62801,0.62479,0.62854,0.62719,0.62445,0.62371,0.61463,0.6214,0.62637,0.61777,0.61913,0.62034,0.61124,0.61187,0.61682,0.61208,0.61179,0.61983,0.61505,0.60674,0.60285,0.61061,0.60737,0.60038,0.60432,0.60429,0.60985,0.60029,0.59614,0.59628,0.59231,0.59683,0.59326,0.58898,0.5906,0.58977,0.59158,0.58456,0.58235,0.58066,0.58412,0.57672,0.57785,0.57663,0.56953,0.57429,0.5758,0.56592,0.56433,0.57031,0.56019,0.5623,0.56282,0.56718,0.55836,0.55809,0.55006,0.54628,0.54854,0.54851,0.54731,0.53742,0.5421,0.55631,0.54689,0.54692,0.55755,0.5451,0.53599,0.5362,0.52762,0.52942,0.52207,0.52148,0.52091,0.51443,0.5142,0.51048,0.52209,0.51498,0.49682,0.50358,0.50968,0.49493,0.50368,0.50426,0.47644,0.48159,0.50865,0.49721,0.47262,0.47782,0.48027,0.4729,0.48053,0.47982,0.46106,0.4507,0.44361,0.45991,0.444,0.45862,0.44718,0.44787,0.46881,0.44368,0.45049,0.42296,0.43028,0.44205,0.43625,0.4478,0.42738,0.42793,0.43431,0.41444,0.40601,0.37808,0.40678,0.40847,0.29292,-0.26477,-0.44502,-0.4241,-0.44072,-0.42653,-0.44421,-0.43393,-0.438,-0.43678,-0.4563,-0.45572,-0.44616,-0.42992,-0.44609,-0.47503,-0.46736,-0.46029,-0.46587,-0.45109,-0.46392,-0.44334,-0.4882,-0.46718,-0.45664,-0.48367,-0.48507,-0.50426,-0.49298,-0.4862,-0.49883,-0.50893,-0.50463,-0.50106,-0.52092,-0.51726,-0.49499,-0.51175,-0.49982,-0.47819,-0.51495,-0.51936,-0.50572,-0.52421,-0.52734,-0.52182,-0.52901,-0.54377,-0.54545,-0.54207,-0.54169,-0.54704,-0.56321,-0.55235,-0.54366,-0.54995,-0.57206,-0.55953,-0.56786,-0.56201,-0.55775,-0.53449,-0.53174,-0.54897,-0.56305,-0.57279,-0.57126,-0.57636,-0.56095,-0.57446,-0.57928,-0.58041,-0.56246,-0.58759,-0.59246,-0.58993,-0.58331,-0.57836,-0.58483,-0.58742,-0.59191,-0.57596,-0.58509,-0.5963,-0.59937,-0.60378,-0.6006,-0.59748,-0.59254,-0.59544,-0.59542,-0.60299,-0.60487,-0.59501,-0.61024,-0.60692,-0.61183,-0.62006,-0.62105,-0.60977,-0.61094,-0.6233,-0.61882,-0.61828,-0.6243,-0.62822,-0.62666,-0.61531,-0.6204,-0.62371,-0.62113,-0.63238,-0.63857,-0.62639,-0.62007,-0.63552,-0.6344,-0.63824,-0.63296,-0.63573,-0.64371,-0.64152,-0.63856,-0.64203,-0.64467,-0.64627,-0.64288,-0.64311,-0.64712
0.6344,0.63014,0.63562,0.63746,0.63484,0.63328,0.62646,0.62625,0.62531,0.62798,0.62668,0.61891,0.62114,0.61669,0.62412,0.62325,0.61498,0.61684,0.61868,0.61117,0.60721,0.61822,0.61417,0.6111,0.6141,0.60723,0.6077,0.6093,0.60385,0.60115,0.60191,0.60396,0.59827,0.60074,0.60437,0.59549,0.59389,0.59064,0.59516,0.59242,0.57997,0.5882,0.58826,0.59051,0.58851,0.58697,0.58067,0.58495,0.57351,0.58143,0.5817,0.57431,0.58252,0.57454,0.56636,0.57695,0.57533,0.54845,0.56754,0.56441,0.56794,0.55762,0.55609,0.55849,0.55531,0.54813,0.54518,0.54256,0.55283,0.53998,0.53581,0.5459,0.54173,0.53902,0.53879,0.53573,0.53092,0.52276,0.5293,0.52111,0.52325,0.50827,0.51343,0.51209,0.51851,0.52628,0.51854,0.51352,0.51615,0.50844,0.48915,0.49994,0.49076,0.48256,0.49589,0.50662,0.4792,0.48221,0.47484,0.48236,0.49297,0.47819,0.45973,0.44459,0.477,0.44949,0.45905,0.45886,0.46031,0.45316,0.44716,0.45818,0.46796,0.45709,0.4386,0.44993,0.43686,0.4451,0.44208,0.4205,0.42298,0.40169,0.39505,0.40606,0.40349,0.39408,0.40409,0.30023,-0.27643,-0.45365,-0.4439,-0.43636,-0.41228,-0.43172,-0.44488,-0.45745,-0.45585,-0.43973,-0.42185,-0.45386,-0.46045,-0.4655,-0.47514,-0.47561,-0.47279,-0.4712,-0.44516,-0.45103,-0.45457,-0.45412,-0.44239,-0.46982,-0.49938,-0.50982,-0.51565,-0.50381,-0.50839,-0.46574,-0.5083,-0.51767,-0.5094,-0.50038,-0.50116,-0.50231,-0.51783,-0.52573,-0.51384,-0.51349,-0.52272,-0.51516,-0.51283,-0.50645,-0.51723,-0.53671,-0.54616,-0.54964,-0.5283,-0.5251,-0.52997,-0.55039,-0.55373,-0.53736,-0.52606,-0.55386,-0.54485,-0.56278,-0.56118,-0.57089,-0.55621,-0.54018,-0.54804,-0.56281,-0.57327,-0.57385,-0.55804,-0.57516,-0.57446,-0.59443,-0.5811,-0.57168,-0.5794,-0.60104,-0.58656,-0.58296,-0.58989,-0.59822,-0.57969,-0.58037,-0.59605,-0.59272,-0.60044,-0.60612,-0.60599,-0.60961,-0.60234,-0.60003,-0.59607,-0.59186,-0.60418,-0.59482,-0.5983,-0.61258,-0.59424,-0.60997,-0.6128,-0.61666,-0.61001,-0.61886,-0.61738,-0.62127,-0.61321,-0.61417,-0.6171,-0.62302,-0.61996,-0.63232,-0.62897,-0.62413,-0.62593,-0.6264,-0.62512,-0.62011,-0.63136,-0.63102,-0.63396,-0.62946,-0.63636,-0.64302,-0.63965,-0.64588,-0.64525,-0.64755,-0.64093,-0.638,-0.64421,-0.64002
0.62952,0.63201,0.63388,0.63069,0.62656,0.63156,0.63111,0.62506,0.63304,0.62925,0.6233,0.62298,0.62328,0.6209,0.62001,0.62513,0.61543,0.61324,0.62008,0.61857,0.61581,0.61395,0.60847,0.60454,0.61121,0.60429,0.60199,0.6055,0.60309,0.59645,0.60037,0.59554,0.59972,0.59612,0.59858,0.59403,0.59207,0.5976,0.59304,0.59061,0.58626,0.58667,0.57587,0.57714,0.59122,0.59115,0.58144,0.57668,0.57311,0.57669,0.58208,0.58356,0.56993,0.56951,0.57349,0.57303,0.57686,0.57063,0.57294,0.55961,0.56484,0.56444,0.55918,0.55325,0.55369,0.55344,0.54098,0.53594,0.55276,0.55068,0.53501,0.53326,0.53504,0.52669,0.52419,0.53377,0.53849,0.5303,0.53422,0.52661,0.52879,0.52572,0.50339,0.51181,0.51549,0.51085,0.51148,0.51032,0.50505,0.49732,0.48022,0.51279,0.4917,0.48602,0.49845,0.48627,0.49531,0.48273,0.47767,0.47213,0.48128,0.48649,0.47883,0.45923,0.47584,0.46477,0.46275,0.47458,0.4489,0.42678,0.4451,0.45269,0.44495,0.45793,0.43252,0.44054,0.4206,0.42756,0.43806,0.42298,0.42068,0.43127,0.38603,0.40209,0.40969,0.39887,0.42284,0.31904,-0.27651,-0.44401,-0.44159,-0.42607,-0.4289,-0.42773,-0.4266,-0.44859,-0.44912,-0.46673,-0.45083,-0.4652,-0.46636,-0.45285,-0.45047,-0.45663,-0.46189,-0.46582,-0.47701,-0.43599,-0.46145,-0.47524,-0.4551,-0.48396,-0.49718,-0.48233,-0.49379,-0.50219,-0.49673,-0.47288,-0.47957,-0.49146,-0.49653,-0.48912,-0.49524,-0.49195,-0.50515,-0.52239,-0.53382,-0.52973,-0.53144,-0.53493,-0.53254,-0.52523,-0.52382,-0.52656,-0.53461,-0.54105,-0.53959,-0.53765,-0.53657,-0.53714,-0.54993,-0.54357,-0.5363,-0.55657,-0.54113,-0.54312,-0.54378,-0.56675,-0.56172,-0.55905,-0.54362,-0.55822,-0.57187,-0.56784,-0.56367,-0.57767,-0.56531,-0.56018,-0.56976,-0.58191,-0.58022,-0.58326,-0.57568,-0.57972,-0.59727,-0.59267,-0.58185,-0.58859,-0.59846,-0.60747,-0.59751,-0.60047,-0.6042,-0.60066,-0.59912,-0.60315,-0.58395,-0.60021,-0.60994,-0.60302,-0.59501,-0.61012,-0.6039,-0.60918,-0.60898,-0.61678,-0.61762,-0.61926,-0.61842,-0.61872,-0.60605,-0.61673,-0.62047,-0.62175,-0.62149,-0.62739,-0.62736,-0.62337,-0.62153,-0.62288,-0.6248,-0.62591,-0.63476,-0.6393,-0.63749,-0.64068,-0.64197,-0.63792,-0.63957,-0.64029,-0.64076,-0.6433,-0.64947,-0.64595,-0.64525,-0.64469
0.63319,0.63289,0.62666,0.63014,0.62691,0.63123,0.6311,0.62446,0.6249,0.62701,0.62078,0.62901,0.62681,0.61497,0.6095,0.62203,0.62309,0.61426,0.61491,0.61436,0.616,0.61388,0.60885,0.6018,0.60868,0.60761,0.60734,0.60671,0.61229,0.60373,0.59725,0.59597,0.6048,0.60296,0.59506,0.59313,0.59227,0.59565,0.59678,0.58826,0.58699,0.58614,0.59273,0.58193,0.57515,0.57909,0.57709,0.58059,0.5836,0.57311,0.57033,0.57819,0.57072,0.57548,0.57469,0.57573,0.56034,0.5671,0.56832,0.55593,0.55139,0.55235,0.54842,0.55361,0.55491,0.54165,0.54745,0.54845,0.54373,0.54091,0.52464,0.53167,0.52634,0.53088,0.52422,0.53832,0.52941,0.52997,0.52203,0.52164,0.52904,0.5125,0.50795,0.52132,0.50644,0.50828,0.50711,0.49537,0.49742,0.50928,0.49277,0.51069,0.4989,0.47963,0.499,0.47866,0.48769,0.49037,0.49186,0.48636,0.48628,0.48018,0.45863,0.45465,0.4582,0.45587,0.45548,0.46557,0.45243,0.45234,0.46765,0.45283,0.44844,0.44242,0.4357,0.43869,0.44032,0.43002,0.44472,0.44367,0.42561,0.42996,0.40606,0.43079,0.43904,0.40757,0.4157,0.28636,-0.29764,-0.45455,-0.44686,-0.44632,-0.44738,-0.42361,-0.45019,-0.45993,-0.43756,-0.45378,-0.44273,-0.45681,-0.45217,-0.44293,-0.44216,-0.44125,-0.44655,-0.46677,-0.47459,-0.44839,-0.46191,-0.47653,-0.46094,-0.48467,-0.47647,-0.49419,-0.49916,-0.48617,-0.4816,-0.49083,-0.48872,-0.51253,-0.48145,-0.49033,-0.51203,-0.50943,-0.5161,-0.50537,-0.50097,-0.52037,-0.51078,-0.51904,-0.52011,-0.54392,-0.54308,-0.53526,-0.53109,-0.52424,-0.53008,-0.52924,-0.55273,-0.54954,-0.54657,-0.55707,-0.5569,-0.5637,-0.54468,-0.53407,-0.54206,-0.55224,-0.56206,-0.57173,-0.56055,-0.57778,-0.56147,-0.56548,-0.57861,-0.57437,-0.57699,-0.57027,-0.57193,-0.57771,-0.57401,-0.57394,-0.59339,-0.58389,-0.58855,-0.58946,-0.59026,-0.59759,-0.59696,-0.59477,-0.59021,-0.59259,-0.59229,-0.59367,-0.60299,-0.60345,-0.59357,-0.60018,-0.60222,-0.60396,-0.60883,-0.62277,-0.61908,-0.61708,-0.61206,-0.61236,-0.60738,-0.61579,-0.61929,-0.6141,-0.61773,-0.62825,-0.63193,-0.63166,-0.6213,-0.6213,-0.61367,-0.62095,-0.6246,-0.63793,-0.63172,-0.63024,-0.63228,-0.63349,-0.63716,-0.63356,-0.62963,-0.62778,-0.63132,-0.63471,-0.63291,-0.63811,-0.64679,-0.64677,-0.65247,-0.64311
0.63445,0.63775,0.63115,0.63124,0.62791,0.62556,0.62673,0.63448,0.62979,0.62507,0.62404,0.62885,0.62453,0.62092,0.61279,0.62516,0.62064,0.6222,0.61732,0.60967,0.61356,0.61144,0.60541,0.599,0.60989,0.60697,0.60816,0.60886,0.61446,0.60953,0.60786,0.60617,0.59364,0.60958,0.60284,0.59766,0.59296,0.5929,0.59669,0.5914,0.58202,0.58349,0.58704,0.57872,0.58415,0.58027,0.56986,0.58024,0.58587,0.58349,0.58126,0.57707,0.57897,0.57704,0.56592,0.57774,0.57069,0.56557,0.56082,0.55764,0.54611,0.55357,0.54941,0.54523,0.55484,0.55743,0.55669,0.55273,0.53962,0.53697,0.54814,0.55605,0.5416,0.54119,0.52545,0.53888,0.52037,0.52621,0.52881,0.51151,0.52496,0.51207,0.53009,0.51414,0.51144,0.50342,0.50237,0.50776,0.50622,0.50476,0.48652,0.50395,0.508,0.48729,0.48146,0.48322,0.49424,0.48648,0.46892,0.48634,0.4888,0.47666,0.47373,0.46989,0.45091,0.46142,0.47188,0.47552,0.47382,0.44808,0.43666,0.44528,0.45563,0.4554,0.45244,0.44271,0.44924,0.44738,0.44795,0.44177,0.42807,0.43046,0.43042,0.43926,0.41774,0.40127,0.40296,0.26838,-0.29007,-0.43462,-0.46889,-0.4826,-0.44585,-0.43687,-0.44728,-0.43575,-0.43403,-0.45639,-0.45794,-0.44715,-0.45319,-0.44935,-0.46169,-0.47275,-0.47211,-0.46215,-0.46127,-0.44276,-0.4383,-0.48801,-0.48713,-0.48062,-0.4752,-0.49559,-0.50664,-0.48429,-0.47743,-0.49435,-0.48829,-0.51058,-0.4759,-0.48587,-0.50736,-0.5179,-0.51797,-0.51467,-0.50377,-0.51958,-0.53715,-0.51867,-0.50444,-0.51445,-0.53279,-0.53281,-0.52778,-0.53663,-0.53471,-0.53157,-0.53587,-0.54737,-0.56511,-0.54908,-0.54996,-0.55303,-0.54733,-0.55033,-0.53703,-0.56921,-0.56328,-0.55008,-0.5543,-0.55807,-0.57014,-0.56434,-0.56343,-0.56648,-0.56616,-0.56581,-0.57272,-0.56494,-0.56941,-0.58192,-0.59421,-0.59644,-0.59491,-0.591,-0.59148,-0.60132,-0.5988,-0.58917,-0.59291,-0.59494,-0.59737,-0.60253,-0.59842,-0.60955,-0.61429,-0.60128,-0.59628,-0.60203,-0.61621,-0.62097,-0.60975,-0.60876,-0.61469,-0.61051,-0.60794,-0.61666,-0.6209,-0.61962,-0.61694,-0.62225,-0.6236,-0.61976,-0.62454,-0.62012,-0.61611,-0.62628,-0.62147,-0.63842,-0.63968,-0.63338,-0.62805,-0.63107,-0.62653,-0.63813,-0.6368,-0.63679,-0.64653,-0.63599,-0.63688,-0.64283,-0.64131,-0.64887,-0.64566,-0.64321
0.63255,0.63523,0.63319,0.6243,0.63236,0.62654,0.62896,0.62633,0.62962,0.62023,0.62707,0.62544,0.62053,0.621,0.62138,0.61993,0.60871,0.61935,0.62309,0.61342,0.60993,0.61071,0.61463,0.6153,0.62201,0.60984,0.60332,0.60085,0.60761,0.60478,0.59991,0.60247,0.60429,0.59674,0.59586,0.6018,0.5943,0.59514,0.59368,0.58987,0.58655,0.5885,0.59476,0.59011,0.58228,0.58269,0.58219,0.59221,0.57631,0.58166,0.59349,0.57982,0.57271,0.57033,0.56596,0.56433,0.56992,0.57107,0.56955,0.55799,0.55526,0.55507,0.54667,0.54916,0.56365,0.56317,0.55077,0.56099,0.5361,0.54378,0.54807,0.53355,0.55374,0.54512,0.50839,0.52949,0.53135,0.52056,0.52578,0.51702,0.52692,0.52458,0.51925,0.51847,0.51472,0.49989,0.51563,0.5203,0.5141,0.49014,0.48641,0.50188,0.48797,0.48951,0.47111,0.47944,0.49258,0.48788,0.46697,0.47024,0.47986,0.46475,0.4767,0.47655,0.46941,0.45095,0.46176,0.47061,0.48195,0.43249,0.45018,0.46448,0.47525,0.43879,0.40652,0.42482,0.44264,0.43908,0.42584,0.43257,0.43201,0.39908,0.40294,0.41834,0.41635,0.40964,0.41908,0.28623,-0.24798,-0.40751,-0.41389,-0.44811,-0.42219,-0.41272,-0.44395,-0.46556,-0.4274,-0.44097,-0.45169,-0.4518,-0.45051,-0.45519,-0.47498,-0.487,-0.46742,-0.46399,-0.46965,-0.46632,-0.44562,-0.48329,-0.50277,-0.48576,-0.5024,-0.50243,-0.48759,-0.49638,-0.49272,-0.49078,-0.49641,-0.47658,-0.48997,-0.50051,-0.50973,-0.50554,-0.50942,-0.51779,-0.51293,-0.52091,-0.53028,-0.50029,-0.49054,-0.5232,-0.53439,-0.52774,-0.54029,-0.541,-0.53246,-0.5427,-0.53528,-0.52235,-0.54647,-0.55228,-0.54582,-0.54819,-0.54952,-0.56696,-0.56731,-0.56432,-0.55533,-0.54796,-0.55591,-0.55979,-0.57136,-0.57343,-0.57801,-0.57007,-0.56703,-0.56979,-0.58259,-0.56745,-0.55845,-0.5699,-0.58239,-0.58098,-0.59044,-0.59952,-0.58984,-0.58902,-0.59074,-0.59981,-0.59429,-0.59926,-0.60278,-0.60101,-0.60642,-0.60666,-0.61394,-0.60591,-0.60956,-0.60854,-0.61679,-0.61333,-0.60207,-0.60772,-0.60423,-0.60584,-0.61021,-0.61413,-0.62718,-0.62565,-0.60469,-0.61435,-0.62393,-0.62625,-0.62853,-0.62052,-0.6211,-0.62779,-0.62041,-0.62996,-0.62806,-0.62593,-0.62699,-0.63183,-0.63155,-0.64476,-0.63916,-0.63647,-0.6472,-0.64258,-0.63634,-0.6393,-0.63141,-0.63991,-0.64339,-0.64254
0.63517,0.62973,0.63241,0.62846,0.63165,0.62521,0.62513,0.62637,0.6258,0.62587,0.6206,0.61893,0.62581,0.62746,0.62671,0.61788,0.62149,0.62246,0.62367,0.61427,0.60586,0.61066,0.6181,0.61358,0.61402,0.60927,0.60204,0.60388,0.60536,0.60208,0.60435,0.60567,0.59691,0.59003,0.59845,0.59489,0.58236,0.59419,0.5958,0.59226,0.58275,0.57431,0.58814,0.59373,0.58228,0.59022,0.58382,0.57669,0.57746,0.57667,0.58471,0.57105,0.56832,0.57311,0.57152,0.57308,0.57654,0.57453,0.57836,0.56557,0.55377,0.5722,0.56049,0.54188,0.54713,0.54499,0.54687,0.54904,0.54771,0.55412,0.54727,0.53577,0.5409,0.54151,0.53375,0.52981,0.52297,0.52393,0.51195,0.52037,0.52379,0.5157,0.5241,0.52315,0.52009,0.51319,0.50923,0.49065,0.50202,0.51498,0.49827,0.49733,0.50226,0.49214,0.48562,0.4856,0.4822,0.50472,0.47663,0.47569,0.47822,0.47253,0.46889,0.48535,0.46696,0.44588,0.44033,0.44621,0.45755,0.44485,0.44626,0.4381,0.44212,0.43619,0.40188,0.44308,0.44146,0.41363,0.42591,0.44523,0.43535,0.43298,0.42657,0.39828,0.40151,0.41091,0.41441,0.32289,-0.26479,-0.43707,-0.42047,-0.43315,-0.42047,-0.42594,-0.41544,-0.44793,-0.44634,-0.42696,-0.4181,-0.46447,-0.47348,-0.46186,-0.4609,-0.47394,-0.45149,-0.46491,-0.48007,-0.48388,-0.46944,-0.48731,-0.44985,-0.44961,-0.47304,-0.50449,-0.49107,-0.49728,-0.49153,-0.47968,-0.50114,-0.474,-0.49154,-0.50237,-0.50307,-0.47391,-0.49159,-0.51317,-0.4836,-0.5116,-0.52123,-0.51453,-0.50913,-0.51646,-0.53427,-0.54928,-0.54152,-0.52863,-0.54637,-0.54516,-0.54687,-0.53467,-0.53417,-0.55301,-0.55814,-0.5523,-0.54243,-0.5647,-0.56179,-0.549,-0.55643,-0.55844,-0.55012,-0.57356,-0.56674,-0.56826,-0.56506,-0.5797,-0.56935,-0.56688,-0.58078,-0.57294,-0.56924,-0.57653,-0.57392,-0.58555,-0.58716,-0.58897,-0.58653,-0.60292,-0.59692,-0.60591,-0.59398,-0.60023,-0.59936,-0.59789,-0.59669,-0.59653,-0.6177,-0.60763,-0.60516,-0.60486,-0.5996,-0.59521,-0.60413,-0.60548,-0.60433,-0.60681,-0.60738,-0.61316,-0.61572,-0.61814,-0.61525,-0.62154,-0.62027,-0.61882,-0.62513,-0.62151,-0.61424,-0.62464,-0.62725,-0.62114,-0.62559,-0.63271,-0.61709,-0.62756,-0.63519,-0.6367,-0.62834,-0.63512,-0.63899,-0.64204,-0.64096,-0.63675,-0.63747,-0.64339,-0.64254,-0.63201
0.63528,0.62863,0.6287,0.6258,0.62878,0.62719,0.62456,0.6318,0.62983,0.62951,0.61503,0.62352,0.6257,0.62658,0.62464,0.62332,0.62089,0.61543,0.62032,0.61635,0.60964,0.61864,0.61473,0.60735,0.60558,0.60616,0.60183,0.60416,0.60968,0.60247,0.59951,0.60063,0.59477,0.59119,0.60086,0.5969,0.59297,0.6011,0.59668,0.59921,0.58667,0.58814,0.59188,0.58816,0.58846,0.59163,0.58643,0.57149,0.57311,0.57745,0.5818,0.57783,0.5793,0.56513,0.55697,0.56994,0.57182,0.56278,0.57657,0.56718,0.56203,0.56598,0.55933,0.54843,0.54747,0.56179,0.54741,0.54869,0.55113,0.54554,0.54293,0.54167,0.54354,0.53441,0.54875,0.53864,0.52157,0.53002,0.53986,0.53302,0.53151,0.51397,0.50302,0.5143,0.51147,0.51832,0.5097,0.48973,0.49652,0.50976,0.51038,0.49093,0.50145,0.4763,0.47999,0.479,0.4939,0.50072,0.49805,0.48818,0.47816,0.46657,0.45909,0.4937,0.47742,0.4604,0.46481,0.47622,0.45958,0.44957,0.45196,0.42045,0.43366,0.42311,0.42149,0.4604,0.45425,0.43087,0.42966,0.43205,0.4262,0.42762,0.42594,0.43463,0.4213,0.41648,0.4118,0.29479,-0.31354,-0.41072,-0.39792,-0.41451,-0.40806,-0.43439,-0.42985,-0.43037,-0.43206,-0.44708,-0.4551,-0.47653,-0.4806,-0.4535,-0.44178,-0.47416,-0.4563,-0.47247,-0.47099,-0.46061,-0.47994,-0.48543,-0.47146,-0.47925,-0.47894,-0.49865,-0.48811,-0.47903,-0.48338,-0.47592,-0.49195,-0.48801,-0.50777,-0.5076,-0.52402,-0.49011,-0.51819,-0.51699,-0.51318,-0.51824,-0.51463,-0.53264,-0.51729,-0.51705,-0.51375,-0.52821,-0.52907,-0.53759,-0.53861,-0.55804,-0.54899,-0.53045,-0.53554,-0.53453,-0.54505,-0.55682,-0.55686,-0.55544,-0.56074,-0.56537,-0.56238,-0.54822,-0.55396,-0.57009,-0.57462,-0.56083,-0.58039,-0.58643,-0.57929,-0.54927,-0.56661,-0.58172,-0.5678,-0.57956,-0.56562,-0.59121,-0.5829,-0.57559,-0.58676,-0.59493,-0.57852,-0.59617,-0.59733,-0.59504,-0.59227,-0.5913,-0.59309,-0.59629,-0.61537,-0.60319,-0.5943,-0.60596,-0.59865,-0.58686,-0.60125,-0.60409,-0.60038,-0.60998,-0.61887,-0.62118,-0.61768,-0.61612,-0.61677,-0.62483,-0.63117,-0.62272,-0.63216,-0.62111,-0.61555,-0.62097,-0.62484,-0.6254,-0.62894,-0.6378,-0.62526,-0.63605,-0.63948,-0.63203,-0.63551,-0.63317,-0.63573,-0.64651,-0.64418,-0.64194,-0.64308,-0.64456,-0.6443,-0.64039
0.63358,0.63295,0.63033,0.63376,0.63323,0.62802,0.62462,0.62785,0.61959,0.6266,0.62364,0.62248,0.62814,0.62288,0.62485,0.62079,0.61785,0.60932,0.61326,0.6186,0.6154,0.61581,0.60999,0.6083,0.61259,0.60901,0.60308,0.60409,0.6091,0.61247,0.60865,0.60303,0.60155,0.602,0.59507,0.59505,0.58916,0.59895,0.5989,0.58481,0.5964,0.5961,0.58581,0.58845,0.5888,0.58604,0.58341,0.5882,0.57112,0.56533,0.5759,0.57032,0.57188,0.57308,0.56794,0.56836,0.56403,0.55546,0.56716,0.56402,0.54912,0.55729,0.55846,0.55854,0.55086,0.55614,0.55217,0.55397,0.54363,0.54796,0.53995,0.53334,0.5467,0.51862,0.531,0.5256,0.53582,0.53024,0.52713,0.51461,0.53594,0.52445,0.50173,0.49729,0.50725,0.51189,0.51614,0.50836,0.50099,0.50246,0.49123,0.46905,0.48795,0.48568,0.46954,0.48495,0.48162,0.47775,0.50056,0.49212,0.48026,0.46736,0.46962,0.4763,0.47337,0.46766,0.47222,0.4826,0.46092,0.4501,0.43688,0.44794,0.45164,0.4298,0.42981,0.43215,0.43459,0.45021,0.42243,0.42931,0.43835,0.42449,0.44,0.4401,0.4237,0.43517,0.41091,0.25191,-0.32244,-0.42312,-0.43608,-0.45672,-0.44356,-0.43898,-0.44966,-0.43982,-0.43642,-0.44914,-0.44929,-0.46061,-0.4367,-0.44698,-0.45538,-0.4622,-0.45484,-0.44177,-0.44537,-0.44986,-0.48884,-0.47002,-0.48174,-0.4776,-0.45953,-0.45909,-0.48642,-0.48471,-0.48382,-0.4838,-0.48364,-0.48198,-0.46492,-0.49152,-0.50869,-0.51808,-0.52201,-0.52148,-0.51864,-0.52253,-0.49879,-0.50792,-0.50774,-0.50894,-0.51369,-0.51536,-0.52445,-0.54098,-0.53398,-0.55326,-0.52962,-0.54597,-0.53762,-0.54811,-0.53999,-0.54241,-0.55139,-0.55657,-0.55206,-0.55337,-0.55139,-0.54725,-0.57836,-0.57456,-0.57111,-0.57553,-0.58021,-0.58897,-0.58621,-0.57006,-0.56895,-0.58388,-0.57866,-0.57655,-0.57679,-0.58522,-0.57897,-0.57764,-0.58818,-0.58561,-0.59479,-0.59854,-0.59409,-0.59705,-0.57847,-0.59275,-0.5911,-0.59527,-0.60722,-0.60655,-0.60075,-0.61435,-0.60799,-0.60636,-0.60917,-0.61186,-0.6066,-0.60943,-0.61835,-0.61844,-0.61462,-0.61338,-0.61914,-0.62079,-0.62286,-0.62677,-0.62681,-0.63026,-0.63032,-0.62969,-0.62577,-0.62834,-0.63408,-0.63501,-0.63421,-0.64009,-0.6339,-0.63573,-0.63725,-0.62724,-0.63334,-0.64351,-0.64602,-0.63528,-0.63989,-0.64407,-0.64729,-0.65124
0.63423,0.6288,0.6306,0.63304,0.62764,0.62598,0.62588,0.62178,0.61674,0.62556,0.62633,0.61691,0.61764,0.61788,0.62237,0.61942,0.61443,0.61871,0.62183,0.61442,0.61067,0.61239,0.6049,0.60894,0.60979,0.60892,0.60705,0.60153,0.60194,0.60673,0.61146,0.60416,0.60235,0.59808,0.60232,0.60137,0.5856,0.59181,0.59067,0.58199,0.59104,0.58867,0.58508,0.5904,0.59088,0.58104,0.57099,0.58468,0.579,0.58026,0.57944,0.57073,0.56298,0.56752,0.57928,0.57651,0.55662,0.55991,0.56758,0.57335,0.55644,0.55538,0.55644,0.55599,0.56095,0.54169,0.5382,0.5499,0.5469,0.55626,0.53402,0.53395,0.55255,0.53709,0.52934,0.52421,0.53222,0.52451,0.53566,0.51851,0.52857,0.52305,0.50735,0.51479,0.52158,0.51676,0.51787,0.50154,0.48387,0.50064,0.49762,0.48539,0.47784,0.48868,0.49435,0.48374,0.46809,0.48294,0.49462,0.47692,0.46662,0.45198,0.46564,0.47017,0.45181,0.47113,0.47999,0.45833,0.46608,0.46355,0.45266,0.46572,0.4559,0.45235,0.45177,0.4362,0.42791,0.45378,0.43668,0.43717,0.43046,0.41928,0.42368,0.4206,0.42044,0.42369,0.41636,0.28895,-0.30628,-0.43656,-0.4578,-0.45928,-0.45676,-0.4351,-0.42626,-0.44661,-0.42831,-0.44282,-0.45014,-0.45802,-0.46258,-0.45562,-0.454,-0.45854,-0.45107,-0.44025,-0.46001,-0.45231,-0.47751,-0.46115,-0.49194,-0.45654,-0.4564,-0.47487,-0.48397,-0.47842,-0.48379,-0.49157,-0.51005,-0.48803,-0.49661,-0.52209,-0.49151,-0.49452,-0.50718,-0.50781,-0.50952,-0.53283,-0.49742,-0.49801,-0.50344,-0.51328,-0.52291,-0.51522,-0.52586,-0.53397,-0.53892,-0.5443,-0.52865,-0.53463,-0.53914,-0.53149,-0.56347,-0.55283,-0.54384,-0.55466,-0.53824,-0.53147,-0.56396,-0.57064,-0.57024,-0.56477,-0.55864,-0.56576,-0.57264,-0.57083,-0.57514,-0.56064,-0.56767,-0.56949,-0.57646,-0.57479,-0.57894,-0.57988,-0.57837,-0.57979,-0.58173,-0.59325,-0.60199,-0.59205,-0.5824,-0.59917,-0.58625,-0.5937,-0.60419,-0.59389,-0.60521,-0.59843,-0.59995,-0.60484,-0.59313,-0.60111,-0.6053,-0.60641,-0.59923,-0.60885,-0.61997,-0.6232,-0.61855,-0.60321,-0.61487,-0.60812,-0.59988,-0.6238,-0.62557,-0.62302,-0.62627,-0.62686,-0.62413,-0.62061,-0.6363,-0.63334,-0.62963,-0.63528,-0.63331,-0.64111,-0.63456,-0.63547,-0.6404,-0.63802,-0.63985,-0.63654,-0.64026,-0.64978,-0.65001,-0.65067
0.62949,0.62969,0.63382,0.63237,0.62797,0.63056,0.62825,0.62171,0.62821,0.62926,0.62691,0.62868,0.62944,0.62015,0.62078,0.62137,0.6189,0.6144,0.62047,0.6156,0.60935,0.6209,0.60692,0.6113,0.61399,0.61118,0.60662,0.60229,0.59889,0.60749,0.61192,0.60135,0.59978,0.59505,0.59355,0.59375,0.59521,0.59191,0.58721,0.58354,0.57835,0.5803,0.5913,0.58648,0.59052,0.59187,0.58349,0.57911,0.56775,0.58179,0.56831,0.56674,0.56991,0.57706,0.56755,0.56875,0.57793,0.56756,0.54587,0.56443,0.55879,0.55553,0.55068,0.55215,0.56356,0.55216,0.53317,0.53535,0.54305,0.54388,0.52822,0.5344,0.54666,0.53785,0.52272,0.52502,0.52814,0.51786,0.53475,0.52926,0.50816,0.52469,0.51954,0.52388,0.51907,0.49652,0.50325,0.50532,0.49009,0.49997,0.50699,0.48598,0.50424,0.49727,0.49966,0.4911,0.46794,0.47492,0.47999,0.48815,0.47744,0.45923,0.48475,0.46902,0.45828,0.46154,0.44982,0.42599,0.45087,0.42893,0.44916,0.45629,0.4345,0.42256,0.45696,0.44124,0.43291,0.4192,0.41983,0.43303,0.42391,0.40862,0.44408,0.43764,0.40512,0.41721,0.40841,0.29725,-0.27453,-0.42907,-0.42743,-0.42357,-0.41169,-0.42174,-0.4326,-0.43498,-0.42195,-0.42885,-0.43006,-0.4356,-0.44248,-0.47494,-0.44511,-0.42851,-0.45788,-0.4622,-0.48473,-0.44301,-0.46991,-0.45355,-0.47901,-0.49988,-0.50718,-0.49022,-0.47332,-0.47308,-0.49799,-0.4958,-0.49138,-0.48247,-0.49871,-0.51131,-0.50075,-0.49782,-0.49367,-0.50311,-0.5129,-0.51498,-0.51157,-0.51996,-0.49868,-0.50832,-0.52887,-0.52751,-0.54442,-0.52529,-0.52276,-0.52529,-0.53984,-0.53573,-0.53338,-0.54385,-0.55151,-0.54371,-0.53647,-0.54188,-0.54743,-0.54095,-0.56513,-0.56034,-0.5557,-0.56591,-0.55354,-0.56262,-0.57873,-0.57695,-0.56977,-0.55823,-0.56019,-0.58513,-0.57893,-0.57036,-0.58513,-0.58954,-0.58831,-0.59421,-0.5953,-0.59025,-0.58565,-0.5776,-0.58908,-0.60647,-0.58991,-0.59715,-0.60541,-0.60011,-0.61023,-0.61679,-0.60481,-0.60245,-0.60086,-0.60051,-0.60529,-0.61774,-0.61157,-0.60262,-0.61179,-0.60757,-0.6198,-0.61744,-0.61956,-0.61876,-0.61713,-0.6234,-0.63071,-0.6257,-0.62002,-0.62146,-0.62943,-0.6291,-0.63615,-0.62723,-0.63057,-0.63608,-0.63992,-0.63706,-0.63512,-0.63572,-0.64552,-0.6425,-0.6388,-0.64197,-0.63925,-0.64116,-0.64945,-0.64322
0.62774,0.63181,0.63149,0.63376,0.62882,0.63014,0.62933,0.62677,0.63205,0.6227,0.61994,0.61836,0.62377,0.62533,0.62386,0.62323,0.62156,0.61502,0.62115,0.61706,0.61425,0.6235,0.6096,0.6029,0.6105,0.61466,0.60312,0.60151,0.60424,0.61161,0.6092,0.6001,0.60814,0.60335,0.60182,0.6033,0.59598,0.58794,0.58752,0.59017,0.5863,0.58271,0.58348,0.58457,0.58991,0.59519,0.58306,0.57346,0.57431,0.5747,0.56914,0.5675,0.5755,0.57505,0.56397,0.56479,0.57148,0.55718,0.55142,0.56402,0.55529,0.54173,0.56208,0.55896,0.54888,0.54859,0.54163,0.54336,0.546,0.53085,0.53504,0.54292,0.53551,0.53161,0.52997,0.53415,0.52918,0.51612,0.53073,0.51508,0.5211,0.52969,0.50569,0.50762,0.5215,0.4955,0.48917,0.50789,0.4982,0.49366,0.49803,0.4702,0.49827,0.50659,0.4882,0.48348,0.4814,0.47649,0.48522,0.48342,0.47454,0.46532,0.46629,0.4653,0.47623,0.45823,0.4362,0.46765,0.4529,0.44216,0.46821,0.4668,0.43249,0.42666,0.4391,0.43332,0.43145,0.42426,0.41746,0.42769,0.42406,0.43396,0.41628,0.42644,0.39516,0.42537,0.38932,0.30281,-0.30359,-0.44645,-0.43574,-0.46239,-0.43986,-0.41949,-0.43457,-0.43316,-0.44706,-0.43807,-0.44802,-0.45052,-0.43395,-0.43713,-0.4472,-0.45862,-0.48692,-0.46493,-0.45948,-0.44863,-0.50648,-0.49318,-0.45904,-0.4825,-0.48792,-0.46949,-0.46778,-0.47673,-0.50113,-0.50452,-0.49327,-0.48146,-0.50024,-0.49167,-0.49065,-0.49145,-0.49891,-0.50215,-0.52324,-0.51463,-0.52127,-0.52809,-0.53136,-0.52154,-0.54085,-0.52989,-0.52699,-0.5369,-0.5326,-0.5376,-0.55481,-0.54769,-0.53033,-0.54129,-0.54748,-0.54691,-0.55106,-0.55687,-0.55537,-0.55795,-0.56463,-0.55651,-0.55822,-0.57024,-0.56279,-0.57286,-0.57704,-0.57919,-0.56645,-0.56945,-0.58951,-0.59457,-0.56871,-0.56747,-0.5879,-0.5852,-0.58079,-0.57682,-0.59794,-0.5905,-0.585,-0.59093,-0.59113,-0.58276,-0.58615,-0.59766,-0.60108,-0.60147,-0.60765,-0.6149,-0.59869,-0.60061,-0.60856,-0.61055,-0.61905,-0.62075,-0.61817,-0.61068,-0.61568,-0.61355,-0.61799,-0.62515,-0.62301,-0.62361,-0.62045,-0.62304,-0.62049,-0.6201,-0.62782,-0.63009,-0.62411,-0.6304,-0.63523,-0.63344,-0.63814,-0.6305,-0.6347,-0.64178,-0.64413,-0.64218,-0.64219,-0.64588,-0.64056,-0.63743,-0.63376,-0.63961,-0.64346,-0.63894
